0.048202 -0.475008 0.367573 0.800000 0.200000 0.500000
-0.058745 -0.767661 0.273121 0.600000 0.300000 0.000000
-0.350461 -0.679260 -0.433350 0.800000 0.200000 0.500000
0.055193 0.714254 0.377308 0.300000 0.000000 0.600000
-0.173083 -0.117012 -0.362173 0.300000 0.600000 0.000000
-0.383173 0.775639 -0.315073 0.300000 0.000000 0.600000
-0.033692 0.551898 0.367573 0.300000 0.000000 0.600000
0.301729 0.101571 0.414312 0.500000 0.500000 0.000000
0.045894 -0.215482 -0.367283 0.300000 0.600000 0.000000
-0.428321 -0.398861 0.377244 0.600000 0.000000 0.300000
-0.349927 0.227947 0.414312 0.500000 0.500000 0.000000
-0.366025 -0.038224 0.269050 0.000000 0.500000 0.500000
-0.383824 -0.086916 0.333486 0.000000 0.500000 0.500000
0.325829 0.340482 0.108653 0.800000 0.200000 0.500000
0.335841 -0.767661 0.273540 0.600000 0.300000 0.000000
0.297307 -0.336662 -0.406652 0.300000 0.000000 0.600000
-0.158474 0.775639 0.082534 0.300000 0.000000 0.600000
0.332431 -0.622457 0.367573 0.800000 0.200000 0.500000
0.359463 0.176820 -0.397753 0.300000 0.000000 0.600000
0.426016 0.474254 -0.399096 0.300000 0.600000 0.000000
-0.053126 -0.767661 -0.308614 0.600000 0.300000 0.000000
-0.018222 -0.735848 -0.205329 0.500000 0.500000 0.000000
0.086220 0.047472 0.367573 0.500000 0.500000 0.000000
0.381519 -0.094679 -0.285832 0.500000 0.000000 0.500000
-0.113625 -0.767661 0.039349 0.600000 0.300000 0.000000
0.174106 0.593113 -0.397753 0.300000 0.000000 0.600000
0.399318 -0.622464 -0.230541 0.300000 0.600000 0.000000
-0.383824 0.661275 0.242768 0.600000 0.300000 0.000000
-0.000707 -0.735848 -0.133808 0.500000 0.500000 0.000000
0.264170 -0.684228 -0.433350 0.800000 0.200000 0.500000
0.013739 -0.803259 -0.419238 0.600000 0.300000 0.000000
0.310895 0.692734 0.414312 0.300000 0.000000 0.600000
0.294075 0.016672 -0.362173 0.300000 0.600000 0.000000
-0.148710 0.322683 0.371841 0.300000 0.000000 0.600000
-0.076790 0.610102 -0.362173 0.600000 0.000000 0.300000
-0.173124 -0.772303 0.414312 0.800000 0.200000 0.500000
-0.331275 0.811236 -0.238623 0.300000 0.000000 0.600000
0.426016 0.554518 -0.429536 0.300000 0.600000 0.000000
-0.428321 -0.468807 -0.045171 0.600000 0.000000 0.300000
0.426016 -0.210240 0.009735 0.300000 0.600000 0.000000
0.363721 0.455184 -0.073338 0.300000 0.000000 0.600000
0.008616 0.121378 0.414312 0.500000 0.500000 0.000000
-0.366025 0.539712 -0.285405 0.600000 0.300000 0.000000
0.236335 -0.289591 -0.397753 0.300000 0.000000 0.600000
-0.125658 0.733560 0.414312 0.300000 0.000000 0.600000
0.399318 0.523043 0.264997 0.300000 0.600000 0.000000
0.289888 0.539408 0.367573 0.300000 0.000000 0.600000
0.226839 -0.744747 -0.000256 0.500000 0.500000 0.000000
-0.124934 0.775639 0.195169 0.300000 0.000000 0.600000
-0.082979 -0.803259 -0.004233 0.600000 0.300000 0.000000
-0.309541 0.811236 0.348389 0.300000 0.000000 0.600000
-0.428321 0.224924 0.041324 0.600000 0.000000 0.300000
-0.366025 -0.551724 0.078648 0.000000 0.000000 1.000000
-0.280880 0.750259 -0.433350 0.600000 0.000000 0.300000
0.350925 0.331583 -0.160746 0.800000 0.200000 0.500000
0.406138 0.334328 -0.433350 0.300000 0.600000 0.000000
-0.366025 -0.416026 0.321067 0.000000 0.000000 1.000000
-0.401623 0.742551 -0.054489 0.600000 0.000000 0.300000
0.274074 0.331583 -0.314407 0.800000 0.200000 0.500000
-0.347874 -0.630198 -0.362173 0.000000 1.000000 0.000000
-0.091022 -0.803259 0.057344 0.600000 0.300000 0.000000
-0.331575 -0.127092 0.385372 0.500000 0.500000 0.000000
0.202951 0.775639 -0.312907 0.300000 0.000000 0.600000
0.426016 0.711434 0.329573 0.300000 0.600000 0.000000
0.153435 -0.744747 -0.016780 0.500000 0.500000 0.000000
0.173978 -0.735848 -0.089909 0.500000 0.500000 0.000000
0.133609 -0.767661 -0.230890 0.600000 0.300000 0.000000
-0.085305 -0.744747 0.085307 0.500000 0.500000 0.000000
-0.383824 -0.641326 0.310038 0.000000 0.000000 1.000000
0.232305 0.289524 0.387614 0.300000 0.000000 0.600000
-0.289096 -0.539238 0.387614 0.800000 0.200000 0.500000
0.363721 0.117853 -0.337928 0.500000 0.000000 0.500000
-0.383824 -0.592317 0.053175 0.000000 0.000000 1.000000
0.399318 -0.144459 0.106592 0.300000 0.600000 0.000000
0.126003 -0.767661 0.282566 0.600000 0.300000 0.000000
0.305459 -0.744747 -0.272350 0.500000 0.500000 0.000000
0.371336 -0.608361 -0.379972 0.000000 1.000000 0.000000
-0.201886 0.610035 0.385372 0.300000 0.000000 0.600000
-0.348305 -0.767661 -0.042967 0.600000 0.300000 0.000000
0.183632 0.630176 -0.362173 0.600000 0.000000 0.300000
0.131342 -0.735848 -0.163462 0.500000 0.500000 0.000000
-0.428321 0.683041 0.111853 0.600000 0.000000 0.300000
-0.118643 -0.803259 0.158370 0.600000 0.300000 0.000000
0.213396 -0.206582 -0.162897 0.600000 0.000000 0.300000
-0.346315 -0.395496 0.414312 0.800000 0.200000 0.500000
0.118005 -0.803259 -0.122610 0.600000 0.300000 0.000000
0.058049 -0.047348 0.414312 0.500000 0.500000 0.000000
0.129209 -0.767661 0.341135 0.600000 0.300000 0.000000
0.154414 -0.767661 0.383406 0.600000 0.300000 0.000000
0.263447 -0.735848 -0.160470 0.500000 0.500000 0.000000
0.164461 0.811236 0.247738 0.300000 0.000000 0.600000
0.328293 -0.803259 -0.207825 0.600000 0.300000 0.000000
-0.178374 0.659663 0.414312 0.300000 0.000000 0.600000
0.399318 -0.206425 0.123240 0.300000 0.600000 0.000000
0.399318 0.706576 0.064794 0.300000 0.600000 0.000000
0.293671 0.811236 -0.193518 0.300000 0.000000 0.600000
0.281632 -0.000457 0.385372 0.500000 0.500000 0.000000
-0.373502 0.137407 0.385372 0.500000 0.500000 0.000000
0.215844 0.775639 0.074312 0.300000 0.000000 0.600000
-0.428321 -0.084961 0.282921 0.600000 0.000000 0.300000
0.143995 -0.410285 -0.362173 0.000000 1.000000 0.000000
0.363721 -0.583688 0.148194 1.000000 0.000000 0.000000
-0.401623 0.698776 0.066760 0.600000 0.000000 0.300000
0.223938 0.363785 -0.379972 0.600000 0.000000 0.300000
-0.083001 -0.803259 -0.208333 0.600000 0.300000 0.000000
-0.383824 -0.031443 -0.178474 0.000000 0.500000 0.500000
-0.259992 0.331583 0.323888 0.800000 0.200000 0.500000
0.399318 -0.441644 0.374772 0.300000 0.600000 0.000000
-0.287378 -0.767661 -0.129037 0.600000 0.300000 0.000000
-0.101019 0.775639 0.111925 0.300000 0.000000 0.600000
0.399318 -0.306141 -0.352422 0.300000 0.600000 0.000000
-0.219320 -0.197683 -0.346895 0.600000 0.000000 0.300000
0.392644 -0.708525 -0.341794 0.500000 0.000000 0.500000
0.376137 -0.065988 -0.406652 0.300000 0.000000 0.600000
-0.163637 -0.275810 -0.406652 0.300000 0.000000 0.600000
-0.058782 0.340482 0.344468 0.800000 0.200000 0.500000
-0.172853 -0.383396 -0.397753 0.300000 0.000000 0.600000
0.221018 -0.767661 0.204785 0.600000 0.300000 0.000000
0.363721 -0.418777 -0.057914 1.000000 0.000000 0.000000
-0.401623 0.172785 0.384861 0.600000 0.000000 0.300000
-0.088027 0.484008 0.385372 0.300000 0.000000 0.600000
0.049080 0.177318 0.414312 0.500000 0.500000 0.000000
0.363721 -0.473671 0.294873 1.000000 0.000000 0.000000
0.161847 -0.321117 0.387614 0.800000 0.200000 0.500000
0.243979 -0.735848 -0.228716 0.500000 0.500000 0.000000
-0.366025 -0.470609 -0.104784 0.000000 0.000000 1.000000
-0.163293 -0.579420 0.414312 0.800000 0.200000 0.500000
-0.401623 0.454604 -0.138808 0.600000 0.000000 0.300000
0.029587 -0.658145 0.414312 0.800000 0.200000 0.500000
-0.226192 0.105868 -0.362173 0.300000 0.600000 0.000000
0.426016 0.451071 0.325811 0.300000 0.600000 0.000000
0.399318 0.498987 0.046099 0.300000 0.600000 0.000000
-0.209996 -0.427758 -0.406652 0.300000 0.000000 0.600000
-0.282525 -0.574498 -0.362173 0.000000 1.000000 0.000000
0.003953 -0.036733 -0.406652 0.300000 0.000000 0.600000
0.175103 -0.778697 -0.433350 0.600000 0.300000 0.000000
-0.377738 -0.215482 -0.087141 0.000000 0.500000 0.500000
-0.069802 -0.803259 -0.373796 0.600000 0.300000 0.000000
0.025477 -0.787965 0.387614 0.800000 0.200000 0.500000
0.308689 -0.803259 0.336527 0.600000 0.300000 0.000000
0.324781 -0.659880 0.367573 0.800000 0.200000 0.500000
0.363721 0.142466 0.251846 0.500000 0.000000 0.500000
0.426016 0.118845 -0.253781 0.300000 0.600000 0.000000
0.070685 0.331583 0.018768 0.800000 0.200000 0.500000
-0.401623 -0.319849 -0.266578 0.600000 0.000000 0.300000
-0.401623 0.739375 0.234816 0.600000 0.000000 0.300000
0.237341 0.718403 0.414312 0.300000 0.000000 0.600000
0.011675 -0.548841 0.414312 0.800000 0.200000 0.500000
-0.161334 0.343677 -0.406652 0.300000 0.000000 0.600000
0.426016 0.341346 0.108506 0.300000 0.600000 0.000000
0.399318 -0.563049 0.316740 0.300000 0.600000 0.000000
-0.241731 0.078082 0.387614 0.500000 0.500000 0.000000
-0.366025 -0.701798 -0.144779 0.000000 0.000000 1.000000
0.399318 0.013977 0.240324 0.300000 0.600000 0.000000
-0.366025 -0.419279 -0.124860 0.000000 0.000000 1.000000
-0.037559 -0.735848 -0.247393 0.500000 0.500000 0.000000
-0.153034 0.775639 -0.318079 0.300000 0.000000 0.600000
-0.244090 -0.803259 -0.368469 0.600000 0.300000 0.000000
-0.007622 -0.767661 0.192408 0.600000 0.300000 0.000000
-0.187644 -0.413628 0.385372 0.800000 0.200000 0.500000
-0.401623 0.568888 0.364582 0.600000 0.000000 0.300000
0.093062 -0.424864 0.367573 0.800000 0.200000 0.500000
0.363721 -0.006650 0.003289 0.500000 0.000000 0.500000
0.124958 0.268621 0.410133 0.500000 0.500000 0.000000
0.399318 0.480504 -0.204304 0.300000 0.600000 0.000000
0.363721 0.392961 0.291953 0.300000 0.000000 0.600000
0.380202 0.629342 0.414312 0.300000 0.000000 0.600000
0.021783 0.303632 0.387614 0.300000 0.000000 0.600000
-0.158920 -0.767661 0.241531 0.600000 0.300000 0.000000
-0.401623 -0.397576 -0.146025 0.600000 0.000000 0.300000
-0.039452 0.341228 -0.406652 0.300000 0.000000 0.600000
0.363721 -0.557942 0.235590 1.000000 0.000000 0.000000
0.346419 0.424092 -0.406652 0.300000 0.000000 0.600000
-0.275013 -0.141895 -0.362173 0.300000 0.600000 0.000000
0.363721 -0.163516 -0.308850 0.500000 0.000000 0.500000
-0.263383 0.322637 0.414312 0.300000 0.000000 0.600000
0.398967 0.507198 0.414312 0.300000 0.000000 0.600000
0.050609 -0.131193 -0.362173 0.300000 0.600000 0.000000
0.016051 0.811236 0.289055 0.300000 0.000000 0.600000
0.372854 0.310774 -0.397753 0.300000 0.000000 0.600000
0.381519 0.145360 0.183515 0.500000 0.000000 0.500000
-0.308186 -0.206582 -0.134936 0.600000 0.000000 0.300000
-0.428321 0.271019 -0.253372 0.600000 0.000000 0.300000
-0.428321 0.017851 0.156663 0.600000 0.000000 0.300000
0.214417 0.475995 0.414312 0.300000 0.000000 0.600000
-0.352786 -0.682045 0.414312 0.800000 0.200000 0.500000
0.091635 -0.603396 0.414312 0.800000 0.200000 0.500000
0.288253 -0.429722 -0.362173 0.000000 1.000000 0.000000
0.426016 0.799462 0.288029 0.300000 0.600000 0.000000
0.043666 0.395460 -0.379972 0.600000 0.000000 0.300000
0.246915 -0.642182 0.367573 0.800000 0.200000 0.500000
0.381519 0.092227 0.255258 0.500000 0.000000 0.500000
-0.428321 0.201186 -0.392661 0.600000 0.000000 0.300000
0.399318 0.041574 -0.112778 0.300000 0.600000 0.000000
0.002065 -0.197683 0.217773 0.600000 0.000000 0.300000
0.399318 0.779094 0.070574 0.300000 0.600000 0.000000
0.215742 -0.803259 0.394307 0.800000 0.200000 0.500000
0.157237 -0.662223 0.414312 0.800000 0.200000 0.500000
0.381519 0.324538 0.343035 0.300000 0.000000 0.600000
0.061970 0.714254 -0.372104 0.600000 0.000000 0.300000
-0.366025 0.595951 -0.046687 0.600000 0.300000 0.000000
-0.301338 -0.767661 -0.213117 0.600000 0.300000 0.000000
0.308235 0.652476 -0.379972 0.600000 0.000000 0.300000
0.399318 -0.547376 -0.238396 0.300000 0.600000 0.000000
-0.022377 0.628722 -0.397753 0.300000 0.000000 0.600000
0.014050 -0.767661 -0.062771 0.600000 0.300000 0.000000
-0.242303 -0.197683 0.204292 0.600000 0.000000 0.300000
-0.023735 -0.087460 0.414312 0.500000 0.500000 0.000000
-0.364414 0.775639 0.022015 0.300000 0.000000 0.600000
-0.150379 -0.683674 0.387614 0.800000 0.200000 0.500000
-0.302746 -0.094462 0.414312 0.500000 0.500000 0.000000
0.426016 0.268332 0.232297 0.300000 0.600000 0.000000
0.381519 -0.571813 0.055886 1.000000 0.000000 0.000000
0.381519 -0.067078 0.384478 0.500000 0.500000 0.000000
-0.272981 -0.767347 0.414312 0.800000 0.200000 0.500000
0.399318 -0.379213 0.235809 0.300000 0.600000 0.000000
-0.428321 -0.345272 -0.317995 0.600000 0.000000 0.300000
0.426016 -0.058315 -0.208408 0.300000 0.600000 0.000000
0.363721 0.094908 0.112220 0.500000 0.000000 0.500000
-0.401623 0.686844 -0.433156 0.600000 0.000000 0.300000
-0.428321 -0.607434 0.241876 0.600000 0.000000 0.300000
-0.366025 -0.383033 -0.166541 0.000000 0.000000 1.000000
0.426016 0.282032 -0.331513 0.300000 0.600000 0.000000
0.426016 -0.574941 0.170444 0.300000 0.600000 0.000000
-0.401623 0.345101 -0.182257 0.600000 0.000000 0.300000
0.392066 -0.196780 0.325771 0.300000 0.000000 0.600000
0.184442 0.340482 0.143520 0.800000 0.200000 0.500000
-0.069592 0.775639 -0.423018 0.600000 0.000000 0.300000
0.399318 -0.075555 0.035217 0.300000 0.600000 0.000000
0.426016 0.781721 -0.350594 0.300000 0.600000 0.000000
-0.057924 -0.197683 -0.219589 0.600000 0.000000 0.300000
-0.321776 -0.206582 -0.361838 0.600000 0.000000 0.300000
-0.426096 -0.430920 0.401834 0.800000 0.200000 0.500000
0.368962 0.249821 0.387614 0.500000 0.500000 0.000000
0.426016 0.512382 0.380286 0.300000 0.600000 0.000000
-0.383824 -0.591979 -0.370570 0.000000 1.000000 0.000000
-0.401623 -0.386571 0.173984 0.600000 0.000000 0.300000
-0.152574 -0.767661 0.034388 0.600000 0.300000 0.000000
0.183590 -0.548952 -0.362173 0.000000 1.000000 0.000000
-0.401623 -0.705536 -0.156258 0.600000 0.000000 0.300000
0.285528 0.340482 0.334845 0.800000 0.200000 0.500000
-0.428321 0.634829 -0.142145 0.600000 0.000000 0.300000
0.088066 -0.206582 -0.220877 0.600000 0.000000 0.300000
0.180858 0.458307 -0.397753 0.300000 0.000000 0.600000
-0.337929 -0.463292 0.385372 0.800000 0.200000 0.500000
0.282270 0.331583 -0.193161 0.800000 0.200000 0.500000
-0.428321 -0.207287 -0.120050 0.600000 0.000000 0.300000
0.363721 -0.658798 -0.087849 1.000000 0.000000 0.000000
0.014461 -0.506242 -0.379972 0.000000 1.000000 0.000000
-0.373541 -0.464700 0.414312 0.800000 0.200000 0.500000
-0.236992 -0.803259 0.031834 0.600000 0.300000 0.000000
0.186371 -0.310064 0.414312 0.800000 0.200000 0.500000
-0.428321 -0.560359 -0.228559 0.600000 0.000000 0.300000
0.213907 0.101070 0.385372 0.500000 0.500000 0.000000
0.046472 -0.803259 0.223262 0.600000 0.300000 0.000000
0.426016 0.516055 -0.049991 0.300000 0.600000 0.000000
0.119087 0.775639 -0.084382 0.300000 0.000000 0.600000
0.057362 -0.735848 0.247678 0.500000 0.500000 0.000000
-0.242590 -0.735848 0.030827 0.500000 0.500000 0.000000
-0.099230 -0.803259 0.118527 0.600000 0.300000 0.000000
0.129278 -0.803259 0.100126 0.600000 0.300000 0.000000
0.399318 -0.367065 -0.343322 0.300000 0.600000 0.000000
-0.098075 0.811236 0.301411 0.300000 0.000000 0.600000
-0.428321 0.283173 -0.169422 0.600000 0.000000 0.300000
0.381519 -0.687585 -0.133242 1.000000 0.000000 0.000000
-0.263662 -0.362076 -0.369724 0.000000 1.000000 0.000000
-0.211859 -0.475508 0.414312 0.800000 0.200000 0.500000
0.399318 -0.215221 0.238486 0.300000 0.600000 0.000000
0.336902 -0.643285 -0.379972 0.000000 1.000000 0.000000
-0.104270 -0.342477 0.459749 0.600000 0.000000 0.300000
0.363721 0.121883 -0.219887 0.500000 0.000000 0.500000
-0.328899 0.136019 0.414312 0.500000 0.500000 0.000000
0.375339 0.775639 -0.326481 0.300000 0.000000 0.600000
-0.366025 0.361988 -0.012653 0.600000 0.300000 0.000000
-0.110209 -0.735848 -0.045720 0.500000 0.500000 0.000000
-0.401623 -0.655715 -0.181050 0.600000 0.000000 0.300000
0.143917 -0.436812 0.387614 0.800000 0.200000 0.500000
0.072087 0.775639 -0.048733 0.300000 0.000000 0.600000
0.113797 -0.586391 -0.379972 0.000000 1.000000 0.000000
-0.088989 0.656591 0.387614 0.300000 0.000000 0.600000
-0.366025 -0.210399 0.179990 0.000000 0.500000 0.500000
0.392459 0.385039 -0.311676 0.000000 0.000000 1.000000
0.188995 -0.803259 -0.181010 0.600000 0.300000 0.000000
-0.001892 0.039464 -0.406652 0.300000 0.000000 0.600000
0.426016 -0.304089 -0.286896 0.300000 0.600000 0.000000
-0.401623 0.569486 -0.178038 0.600000 0.000000 0.300000
-0.337247 0.653971 -0.397753 0.300000 0.000000 0.600000
-0.129096 -0.197683 0.190560 0.600000 0.000000 0.300000
0.399318 0.803675 -0.186035 0.300000 0.600000 0.000000
0.339371 -0.767661 0.351761 0.600000 0.300000 0.000000
-0.150293 -0.803259 -0.340905 0.600000 0.300000 0.000000
-0.285530 0.322683 0.383816 0.300000 0.000000 0.600000
-0.393074 0.385039 -0.234003 0.600000 0.300000 0.000000
0.399318 -0.766342 -0.339966 0.300000 0.600000 0.000000
-0.401623 0.189695 0.215088 0.600000 0.000000 0.300000
0.284519 0.811236 0.284040 0.300000 0.000000 0.600000
0.032538 -0.742178 0.414312 0.800000 0.200000 0.500000
-0.366025 0.595024 0.302381 0.600000 0.300000 0.000000
0.399318 0.737780 0.261965 0.300000 0.600000 0.000000
-0.428321 0.040231 -0.051034 0.600000 0.000000 0.300000
0.342461 0.674878 -0.362173 0.600000 0.000000 0.300000
0.426016 0.293607 0.171844 0.300000 0.600000 0.000000
0.093765 0.488900 0.387614 0.300000 0.000000 0.600000
0.426016 -0.064112 0.353237 0.300000 0.600000 0.000000
0.319918 -0.197683 0.165033 0.600000 0.000000 0.300000
0.426016 0.682229 0.276752 0.300000 0.600000 0.000000
-0.428321 0.558696 -0.072617 0.600000 0.000000 0.300000
0.051849 0.811236 0.211826 0.300000 0.000000 0.600000
-0.144314 0.340482 0.048972 0.800000 0.200000 0.500000
-0.157811 0.107642 -0.362173 0.300000 0.600000 0.000000
0.020925 0.357558 -0.362173 0.600000 0.000000 0.300000
-0.292910 -0.325881 -0.406652 0.300000 0.000000 0.600000
0.399318 -0.643381 -0.405127 0.300000 0.600000 0.000000
0.261601 -0.550334 -0.406652 0.300000 0.000000 0.600000
0.256207 -0.803259 0.135653 0.600000 0.300000 0.000000
0.426016 -0.529240 0.199818 0.300000 0.600000 0.000000
0.399318 0.444092 0.251052 0.300000 0.600000 0.000000
0.043800 0.775639 -0.269961 0.300000 0.000000 0.600000
0.399318 0.392066 0.345010 0.300000 0.600000 0.000000
0.399318 0.047860 -0.253104 0.300000 0.600000 0.000000
-0.383824 -0.086233 -0.342377 0.000000 0.500000 0.500000
0.399318 0.678223 -0.073946 0.300000 0.600000 0.000000
-0.210342 0.340482 0.021209 0.800000 0.200000 0.500000
-0.198068 0.621425 -0.397753 0.300000 0.000000 0.600000
-0.181751 -0.803259 0.023602 0.600000 0.300000 0.000000
-0.405175 -0.291900 0.385389 0.600000 0.000000 0.300000
0.399318 0.210481 0.131806 0.300000 0.600000 0.000000
-0.357648 0.811236 -0.356644 0.300000 0.000000 0.600000
0.363721 0.610171 0.113479 0.300000 0.000000 0.600000
0.260118 0.167753 0.367573 0.500000 0.500000 0.000000
-0.138934 0.775639 -0.197262 0.300000 0.000000 0.600000
0.253029 -0.206582 -0.103063 0.600000 0.000000 0.300000
-0.221566 -0.735848 -0.142089 0.500000 0.500000 0.000000
-0.303946 -0.803259 0.200079 0.600000 0.300000 0.000000
0.399318 -0.003675 0.138599 0.300000 0.600000 0.000000
0.142203 0.811236 -0.122434 0.300000 0.000000 0.600000
0.399318 -0.781104 0.028374 0.600000 0.300000 0.000000
0.399318 0.341436 -0.231131 0.300000 0.600000 0.000000
0.005438 -0.674010 -0.362173 0.000000 1.000000 0.000000
-0.038404 -0.803259 -0.001064 0.600000 0.300000 0.000000
-0.137870 0.033124 -0.379972 0.300000 0.600000 0.000000
-0.366025 0.665782 0.186192 0.600000 0.300000 0.000000
0.363721 -0.496937 -0.244407 1.000000 0.000000 0.000000
-0.274722 -0.197683 0.028445 0.600000 0.000000 0.300000
-0.012595 0.235099 0.387614 0.500000 0.500000 0.000000
-0.113183 -0.803259 -0.368808 0.600000 0.300000 0.000000
-0.428321 0.735379 -0.224863 0.600000 0.000000 0.300000
-0.150560 -0.803259 -0.256100 0.600000 0.300000 0.000000
-0.039669 0.404079 -0.379972 0.600000 0.000000 0.300000
0.426016 0.118475 -0.399454 0.300000 0.600000 0.000000
-0.130317 -0.301867 0.414312 0.800000 0.200000 0.500000
0.426016 0.775104 -0.033542 0.300000 0.600000 0.000000
0.363721 -0.015145 -0.085223 0.500000 0.000000 0.500000
0.192922 0.811236 0.031678 0.300000 0.000000 0.600000
-0.035692 -0.057266 0.367573 0.500000 0.500000 0.000000
0.296133 -0.720932 0.385372 0.800000 0.200000 0.500000
-0.113403 0.552009 -0.379972 0.600000 0.000000 0.300000
0.164215 -0.803259 0.142700 0.600000 0.300000 0.000000
0.003177 -0.394438 0.367573 0.800000 0.200000 0.500000
-0.150224 0.705573 0.367573 0.300000 0.000000 0.600000
0.422021 -0.548700 0.414312 0.800000 0.200000 0.500000
0.323339 -0.744747 -0.360019 0.500000 0.500000 0.000000
0.426016 0.018821 -0.397956 0.300000 0.600000 0.000000
-0.366025 0.710944 0.009717 0.600000 0.300000 0.000000
-0.263893 0.775639 -0.363357 0.300000 0.000000 0.600000
0.426016 0.177087 0.317224 0.300000 0.600000 0.000000
-0.022449 0.800548 0.414312 0.300000 0.000000 0.600000
-0.143716 -0.427063 0.387614 0.800000 0.200000 0.500000
-0.124864 0.340482 0.292501 0.800000 0.200000 0.500000
0.258493 -0.767661 -0.432066 0.800000 0.200000 0.500000
0.156671 0.767525 -0.433350 0.600000 0.000000 0.300000
-0.428321 0.763218 0.149415 0.600000 0.000000 0.300000
0.399318 0.540047 0.112043 0.300000 0.600000 0.000000
-0.383824 -0.428321 0.059959 0.000000 0.000000 1.000000
0.093345 -0.767661 -0.054092 0.600000 0.300000 0.000000
0.399318 0.387388 0.041823 0.300000 0.600000 0.000000
0.381519 -0.488752 0.329266 1.000000 0.000000 0.000000
0.426016 -0.618463 0.051821 0.300000 0.600000 0.000000
-0.401623 0.129711 0.280072 0.600000 0.000000 0.300000
-0.428321 0.421475 -0.290209 0.600000 0.000000 0.300000
-0.366025 0.493829 0.118914 0.600000 0.300000 0.000000
0.399318 -0.457845 -0.383080 0.300000 0.600000 0.000000
-0.229804 0.811236 0.369276 0.300000 0.000000 0.600000
-0.428321 0.276299 -0.115963 0.600000 0.000000 0.300000
-0.231446 -0.803259 0.191479 0.600000 0.300000 0.000000
-0.097856 0.775639 -0.381148 0.300000 0.000000 0.600000
0.381519 -0.159475 -0.122097 0.500000 0.000000 0.500000
-0.047750 -0.521259 0.414312 0.800000 0.200000 0.500000
0.399318 0.537140 -0.211794 0.300000 0.600000 0.000000
0.389735 -0.536398 -0.406652 0.300000 0.000000 0.600000
0.399318 0.080790 -0.097677 0.300000 0.600000 0.000000
-0.428321 0.354412 -0.058399 0.600000 0.000000 0.300000
-0.263649 -0.735848 -0.037918 0.500000 0.500000 0.000000
0.394990 0.727487 0.387614 0.300000 0.000000 0.600000
0.259440 0.474810 0.385372 0.300000 0.000000 0.600000
-0.424663 -0.742314 -0.433350 0.600000 0.000000 0.300000
-0.323307 0.811236 0.025435 0.300000 0.000000 0.600000
-0.401623 -0.052462 0.032369 0.600000 0.000000 0.300000
-0.401623 -0.551181 -0.027887 0.600000 0.000000 0.300000
-0.401623 0.409605 0.062886 0.600000 0.000000 0.300000
0.091549 -0.767661 -0.103624 0.600000 0.300000 0.000000
0.426016 0.051664 0.182251 0.300000 0.600000 0.000000
-0.041531 0.811236 0.340994 0.300000 0.000000 0.600000
0.372389 0.176089 0.108709 0.500000 0.000000 0.500000
0.053505 0.775639 0.126776 0.300000 0.000000 0.600000
0.051986 -0.650774 -0.362173 0.000000 1.000000 0.000000
0.053275 0.754257 0.414312 0.300000 0.000000 0.600000
0.037731 -0.395712 0.387614 0.800000 0.200000 0.500000
0.426016 0.480541 0.028376 0.300000 0.600000 0.000000
-0.366025 -0.463888 -0.259245 0.000000 0.000000 1.000000
-0.067143 -0.767661 -0.245640 0.600000 0.300000 0.000000
-0.245052 0.811236 -0.029673 0.300000 0.000000 0.600000
-0.248166 0.733982 -0.397753 0.300000 0.000000 0.600000
0.426016 0.368094 -0.152429 0.300000 0.600000 0.000000
-0.005981 0.646129 0.387614 0.300000 0.000000 0.600000
0.070153 -0.197683 -0.307614 0.600000 0.000000 0.300000
0.266501 -0.606368 -0.397753 0.300000 0.000000 0.600000
0.426016 -0.242015 -0.042220 0.300000 0.600000 0.000000
0.303526 -0.124486 0.385372 0.500000 0.500000 0.000000
-0.401623 -0.660158 0.015485 0.600000 0.000000 0.300000
-0.126347 0.459553 -0.397753 0.300000 0.000000 0.600000
-0.366025 0.023625 0.099096 0.000000 0.500000 0.500000
-0.284216 0.619458 -0.397753 0.300000 0.000000 0.600000
-0.366025 0.541032 -0.339148 0.600000 0.300000 0.000000
0.363721 0.569707 0.297716 0.300000 0.000000 0.600000
-0.383824 0.659184 0.131708 0.600000 0.300000 0.000000
-0.428321 -0.021800 0.313234 0.600000 0.000000 0.300000
0.028264 -0.767661 0.141028 0.600000 0.300000 0.000000
0.381519 0.579077 -0.294830 0.300000 0.000000 0.600000
0.209576 -0.673068 -0.379972 0.000000 1.000000 0.000000
-0.072999 0.741095 0.387614 0.300000 0.000000 0.600000
0.338644 0.011081 -0.379972 0.300000 0.600000 0.000000
0.014463 0.555115 -0.406652 0.300000 0.000000 0.600000
-0.401623 0.354278 0.302556 0.600000 0.000000 0.300000
-0.150431 -0.803259 -0.173951 0.600000 0.300000 0.000000
0.361623 -0.741562 -0.406652 0.800000 0.200000 0.500000
-0.100758 -0.721167 0.414312 0.800000 0.200000 0.500000
0.084579 -0.767661 -0.304539 0.600000 0.300000 0.000000
-0.083675 -0.188199 0.414312 0.500000 0.500000 0.000000
0.295304 -0.175765 -0.406652 0.300000 0.000000 0.600000
0.363721 -0.213629 -0.066946 0.500000 0.000000 0.500000
-0.401623 0.295650 0.168026 0.600000 0.000000 0.300000
0.349177 -0.316579 0.387614 0.800000 0.200000 0.500000
0.399318 0.105712 0.296248 0.300000 0.600000 0.000000
-0.005112 0.775639 -0.128048 0.300000 0.000000 0.600000
-0.423187 -0.667332 -0.433350 0.600000 0.000000 0.300000
0.310339 -0.390897 -0.397753 0.300000 0.000000 0.600000
0.400888 0.790134 -0.433350 0.300000 0.600000 0.000000
0.363721 0.711646 0.146030 0.300000 0.000000 0.600000
-0.428321 0.401308 -0.397409 0.600000 0.000000 0.300000
0.038429 -0.428682 -0.362173 0.000000 1.000000 0.000000
0.221983 0.040649 0.385372 0.500000 0.500000 0.000000
-0.093562 0.619480 0.414312 0.300000 0.000000 0.600000
-0.078453 -0.149474 -0.397753 0.300000 0.000000 0.600000
0.399318 -0.711829 0.170137 0.300000 0.600000 0.000000
-0.366025 0.010845 -0.276768 0.000000 0.500000 0.500000
0.364213 -0.428483 -0.397753 0.300000 0.000000 0.600000
0.287338 0.811236 0.122390 0.300000 0.000000 0.600000
0.426016 0.449949 -0.297857 0.300000 0.600000 0.000000
-0.322658 -0.518193 0.385372 0.800000 0.200000 0.500000
0.083288 0.811236 -0.360590 0.300000 0.000000 0.600000
0.381519 0.027583 0.027393 0.500000 0.000000 0.500000
0.392644 0.354081 -0.351448 0.000000 0.000000 1.000000
0.426016 -0.716479 0.249700 0.300000 0.600000 0.000000
-0.186988 0.775639 -0.374854 0.300000 0.000000 0.600000
0.426016 0.545700 0.219557 0.300000 0.600000 0.000000
-0.394864 0.148407 0.414312 0.500000 0.500000 0.000000
0.104036 -0.767661 0.021651 0.600000 0.300000 0.000000
0.118200 -0.200387 -0.362173 0.300000 0.600000 0.000000
0.426016 0.559924 -0.059910 0.300000 0.600000 0.000000
-0.152329 -0.397049 0.367573 0.800000 0.200000 0.500000
0.388026 0.811236 0.121863 0.300000 0.000000 0.600000
-0.375203 0.538412 -0.406652 0.300000 0.000000 0.600000
-0.428321 -0.320407 0.203523 0.600000 0.000000 0.300000
0.399318 -0.038231 -0.096917 0.300000 0.600000 0.000000
0.153395 -0.709984 -0.397753 0.300000 0.000000 0.600000
0.294841 -0.767661 -0.360443 0.600000 0.300000 0.000000
0.399318 0.422210 -0.363426 0.300000 0.600000 0.000000
-0.426096 -0.759516 0.396601 0.800000 0.200000 0.500000
-0.072859 -0.712336 -0.362173 0.000000 1.000000 0.000000
-0.378749 0.075118 -0.362173 0.300000 0.600000 0.000000
0.426016 0.553759 -0.230783 0.300000 0.600000 0.000000
-0.428321 -0.373964 -0.252136 0.600000 0.000000 0.300000
0.399318 0.155698 0.352683 0.300000 0.600000 0.000000
0.039386 0.775639 -0.334656 0.300000 0.000000 0.600000
-0.314031 0.331583 -0.008627 0.800000 0.200000 0.500000
0.399318 0.286422 0.109459 0.300000 0.600000 0.000000
0.032536 -0.767661 0.318005 0.600000 0.300000 0.000000
-0.103369 -0.209199 0.385372 0.500000 0.500000 0.000000
-0.011728 0.132704 -0.362173 0.300000 0.600000 0.000000
-0.333578 -0.393991 -0.362173 0.000000 1.000000 0.000000
0.343082 -0.550403 0.414312 0.800000 0.200000 0.500000
-0.428321 0.273664 0.050232 0.600000 0.000000 0.300000
0.109109 -0.206582 0.348887 0.600000 0.000000 0.300000
-0.401623 0.124471 -0.296623 0.600000 0.000000 0.300000
0.399318 -0.402771 -0.071521 0.300000 0.600000 0.000000
-0.428321 0.392907 -0.358307 0.600000 0.000000 0.300000
-0.164692 0.058059 0.367573 0.500000 0.500000 0.000000
0.399318 -0.282667 0.130892 0.300000 0.600000 0.000000
0.007783 0.173004 -0.397753 0.300000 0.000000 0.600000
-0.230113 -0.801344 -0.433350 0.600000 0.300000 0.000000
-0.401623 0.528161 -0.251740 0.600000 0.000000 0.300000
-0.032263 -0.310621 -0.406652 0.300000 0.000000 0.600000
-0.401623 0.007770 -0.010346 0.600000 0.000000 0.300000
0.381519 0.630478 -0.076822 0.300000 0.000000 0.600000
0.391685 -0.194820 -0.347665 0.300000 0.000000 0.600000
0.040631 -0.767661 -0.299431 0.600000 0.300000 0.000000
0.133594 -0.606320 0.414312 0.800000 0.200000 0.500000
0.243118 -0.662218 -0.397753 0.300000 0.000000 0.600000
0.043361 -0.735848 -0.113185 0.500000 0.500000 0.000000
-0.183508 -0.661621 -0.433350 0.800000 0.200000 0.500000
-0.401623 -0.111718 -0.058877 0.600000 0.000000 0.300000
0.000277 0.331583 -0.065714 0.800000 0.200000 0.500000
0.381519 -0.597879 -0.186889 1.000000 0.000000 0.000000
0.105368 -0.751802 0.367573 0.800000 0.200000 0.500000
-0.401623 0.129803 -0.078425 0.600000 0.000000 0.300000
-0.299653 0.775639 -0.046361 0.300000 0.000000 0.600000
0.381519 -0.082075 -0.086479 0.500000 0.000000 0.500000
0.141745 0.500873 0.367573 0.300000 0.000000 0.600000
-0.100644 -0.570231 -0.379972 0.000000 1.000000 0.000000
0.234032 -0.767661 0.115759 0.600000 0.300000 0.000000
0.426016 0.034849 -0.086182 0.300000 0.600000 0.000000
-0.428321 0.170467 -0.111508 0.600000 0.000000 0.300000
0.366744 -0.751963 0.414312 0.800000 0.200000 0.500000
-0.401623 0.698484 -0.091290 0.600000 0.000000 0.300000
-0.401623 -0.755658 0.311880 0.600000 0.000000 0.300000
-0.289311 -0.362010 0.387614 0.800000 0.200000 0.500000
-0.345118 -0.560539 0.385372 0.800000 0.200000 0.500000
0.033665 -0.016672 0.367573 0.500000 0.500000 0.000000
0.175060 -0.010574 -0.406652 0.300000 0.000000 0.600000
-0.428321 -0.236299 -0.048143 0.600000 0.000000 0.300000
-0.428321 -0.317480 0.244521 0.600000 0.000000 0.300000
-0.180919 0.340482 0.112284 0.800000 0.200000 0.500000
-0.401623 -0.127117 0.327769 0.600000 0.000000 0.300000
0.214877 -0.767661 0.072755 0.600000 0.300000 0.000000
-0.216444 -0.319136 -0.397753 0.300000 0.000000 0.600000
0.363721 -0.545966 0.080541 1.000000 0.000000 0.000000
-0.249378 -0.197683 -0.212121 0.600000 0.000000 0.300000
0.417453 -0.803259 -0.297212 0.300000 0.600000 0.000000
0.426016 -0.013807 -0.233787 0.300000 0.600000 0.000000
-0.428321 0.520682 0.317036 0.600000 0.000000 0.300000
-0.401623 0.412832 0.246836 0.600000 0.000000 0.300000
-0.335521 0.008316 0.414312 0.500000 0.500000 0.000000
0.426016 -0.652850 -0.225211 0.300000 0.600000 0.000000
-0.018619 -0.191299 0.385372 0.500000 0.500000 0.000000
-0.401623 0.563098 0.276302 0.600000 0.000000 0.300000
-0.401623 0.242055 -0.035567 0.600000 0.000000 0.300000
-0.247309 -0.700649 0.385372 0.800000 0.200000 0.500000
0.183317 0.071704 -0.379972 0.300000 0.600000 0.000000
0.426016 0.355214 0.000239 0.300000 0.600000 0.000000
0.399318 -0.713263 -0.218304 0.300000 0.600000 0.000000
0.288525 0.210138 -0.397753 0.300000 0.000000 0.600000
0.126308 -0.197683 0.116324 0.600000 0.000000 0.300000
-0.428321 0.036545 -0.258594 0.600000 0.000000 0.300000
-0.093661 -0.081849 0.387614 0.500000 0.500000 0.000000
-0.199711 0.009562 -0.397753 0.300000 0.000000 0.600000
0.096882 0.775639 -0.407367 0.600000 0.000000 0.300000
0.426016 0.230745 0.065819 0.300000 0.600000 0.000000
0.426016 0.079468 -0.322550 0.300000 0.600000 0.000000
0.102847 0.647798 -0.362173 0.600000 0.000000 0.300000
0.132018 -0.197683 -0.249178 0.600000 0.000000 0.300000
-0.296490 -0.562177 0.414312 0.800000 0.200000 0.500000
0.333467 0.081283 0.414312 0.500000 0.500000 0.000000
0.259655 0.340482 -0.226909 0.800000 0.200000 0.500000
0.399318 0.296446 -0.266371 0.300000 0.600000 0.000000
-0.370670 -0.719041 0.387614 0.800000 0.200000 0.500000
-0.287659 0.331583 0.157701 0.800000 0.200000 0.500000
0.363721 -0.611016 0.072611 1.000000 0.000000 0.000000
-0.428321 0.063658 0.146812 0.600000 0.000000 0.300000
0.392644 -0.722151 -0.009659 0.500000 0.000000 0.500000
-0.157473 -0.735848 -0.096872 0.500000 0.500000 0.000000
0.399318 0.595352 0.184047 0.300000 0.600000 0.000000
-0.401623 0.754297 -0.106996 0.600000 0.000000 0.300000
-0.023253 0.775639 -0.407633 0.300000 0.000000 0.600000
0.309425 -0.756271 0.414312 0.800000 0.200000 0.500000
0.018312 -0.464431 -0.406652 0.300000 0.000000 0.600000
-0.394948 -0.712506 -0.269844 0.000000 0.500000 0.500000
0.188127 -0.047926 -0.379972 0.300000 0.600000 0.000000
0.399318 -0.113937 -0.076489 0.300000 0.600000 0.000000
-0.401623 -0.065828 0.299817 0.600000 0.000000 0.300000
0.220572 -0.573039 -0.406652 0.300000 0.000000 0.600000
-0.235024 0.775639 -0.400647 0.300000 0.000000 0.600000
-0.428321 -0.794394 0.140886 0.600000 0.000000 0.300000
0.426016 -0.551526 -0.384386 0.300000 0.600000 0.000000
0.287410 -0.803259 0.183771 0.600000 0.300000 0.000000
0.116802 0.811236 0.037048 0.300000 0.000000 0.600000
0.251425 0.331583 0.207040 0.800000 0.200000 0.500000
0.426016 -0.151995 0.238752 0.300000 0.600000 0.000000
0.333229 0.811236 0.032857 0.300000 0.000000 0.600000
-0.004330 -0.301433 0.414312 0.800000 0.200000 0.500000
-0.127671 -0.629027 -0.397753 0.300000 0.000000 0.600000
-0.397042 -0.693330 0.125195 0.000000 0.500000 0.500000
0.381519 -0.016002 -0.039078 0.500000 0.000000 0.500000
-0.158764 0.719792 0.414312 0.300000 0.000000 0.600000
0.122179 0.399404 0.367573 0.300000 0.000000 0.600000
-0.316245 -0.744747 0.024907 0.500000 0.500000 0.000000
0.426016 -0.435920 -0.016477 0.300000 0.600000 0.000000
0.327371 -0.283409 -0.397753 0.300000 0.000000 0.600000
0.234758 -0.767661 -0.126374 0.600000 0.300000 0.000000
0.426016 -0.386399 -0.269442 0.300000 0.600000 0.000000
0.426016 -0.577431 0.089124 0.300000 0.600000 0.000000
0.209795 -0.610902 -0.433350 0.800000 0.200000 0.500000
-0.231139 -0.759704 0.414312 0.800000 0.200000 0.500000
-0.414322 0.056016 0.414312 0.500000 0.500000 0.000000
-0.426096 0.774073 0.413586 0.300000 0.000000 0.600000
0.399318 0.369836 0.123436 0.300000 0.600000 0.000000
0.048434 -0.723982 -0.433350 0.800000 0.200000 0.500000
-0.035890 -0.803259 -0.100154 0.600000 0.300000 0.000000
-0.098434 -0.362076 -0.379605 0.000000 1.000000 0.000000
-0.091039 -0.735848 -0.192677 0.500000 0.500000 0.000000
-0.025731 0.775639 -0.227938 0.300000 0.000000 0.600000
-0.108720 0.184933 0.387614 0.500000 0.500000 0.000000
0.128311 -0.502560 0.385372 0.800000 0.200000 0.500000
0.210272 -0.156707 0.387614 0.500000 0.500000 0.000000
0.047023 -0.197683 0.035390 0.600000 0.000000 0.300000
-0.401623 -0.665267 -0.093762 0.600000 0.000000 0.300000
-0.308009 0.336226 -0.406652 0.300000 0.000000 0.600000
-0.199937 0.775639 -0.232794 0.300000 0.000000 0.600000
-0.177807 -0.255598 0.387614 0.500000 0.500000 0.000000
-0.363690 -0.803259 0.196879 0.600000 0.300000 0.000000
0.274924 0.719501 0.414312 0.300000 0.000000 0.600000
0.426016 -0.195326 -0.241874 0.300000 0.600000 0.000000
0.224288 0.340482 0.148813 0.800000 0.200000 0.500000
-0.401623 0.151893 0.034522 0.600000 0.000000 0.300000
0.093406 0.811236 -0.309745 0.300000 0.000000 0.600000
0.053879 -0.803259 -0.091776 0.600000 0.300000 0.000000
0.228800 -0.767661 -0.271138 0.600000 0.300000 0.000000
-0.426096 0.230364 0.407344 0.500000 0.500000 0.000000
0.151914 -0.035849 0.367573 0.500000 0.500000 0.000000
-0.030722 0.340482 -0.091428 0.800000 0.200000 0.500000
0.054791 -0.689732 -0.397753 0.300000 0.000000 0.600000
0.289494 0.597423 -0.379972 0.600000 0.000000 0.300000
-0.198796 0.775639 0.095340 0.300000 0.000000 0.600000
-0.325936 -0.241217 0.387614 0.500000 0.500000 0.000000
-0.374550 0.775639 -0.063381 0.300000 0.000000 0.600000
0.426016 -0.717437 0.049314 0.300000 0.600000 0.000000
0.141293 -0.539815 0.414312 0.800000 0.200000 0.500000
-0.401623 -0.192880 -0.308251 0.600000 0.000000 0.300000
-0.340964 0.324241 -0.362173 0.600000 0.000000 0.300000
-0.015333 0.811236 -0.343791 0.300000 0.000000 0.600000
-0.401623 0.160774 -0.179402 0.600000 0.000000 0.300000
0.284846 -0.396388 0.385372 0.800000 0.200000 0.500000
-0.428321 -0.754276 -0.116840 0.600000 0.000000 0.300000
0.426016 0.603891 -0.219214 0.300000 0.600000 0.000000
0.080394 0.528852 0.387614 0.300000 0.000000 0.600000
-0.113754 0.000960 -0.362173 0.300000 0.600000 0.000000
-0.383842 0.054504 -0.397753 0.300000 0.000000 0.600000
0.071234 0.331583 0.181780 0.800000 0.200000 0.500000
0.314829 -0.149716 0.414312 0.500000 0.500000 0.000000
-0.111317 0.811236 0.367455 0.300000 0.000000 0.600000
-0.316922 -0.413981 0.387614 0.800000 0.200000 0.500000
0.306005 0.331583 -0.044208 0.800000 0.200000 0.500000
0.154907 0.811236 -0.187772 0.300000 0.000000 0.600000
-0.326898 -0.767661 0.345921 0.600000 0.300000 0.000000
-0.383824 -0.439528 0.098132 0.000000 0.000000 1.000000
0.175833 -0.767661 -0.283901 0.600000 0.300000 0.000000
0.426016 -0.531807 -0.079449 0.300000 0.600000 0.000000
0.399318 -0.240228 0.169042 0.300000 0.600000 0.000000
0.063407 -0.197683 0.199892 0.600000 0.000000 0.300000
-0.401623 -0.013951 -0.204959 0.600000 0.000000 0.300000
-0.428321 -0.151228 0.101494 0.600000 0.000000 0.300000
0.381519 0.059567 -0.215201 0.500000 0.000000 0.500000
0.168566 -0.767661 -0.218108 0.600000 0.300000 0.000000
0.154099 0.811236 0.006569 0.300000 0.000000 0.600000
0.399318 -0.463080 0.058673 0.300000 0.600000 0.000000
-0.085822 0.383819 0.414312 0.300000 0.000000 0.600000
-0.279346 0.811236 -0.015413 0.300000 0.000000 0.600000
-0.187578 -0.513448 -0.406652 0.300000 0.000000 0.600000
-0.296643 0.605822 0.387614 0.300000 0.000000 0.600000
-0.267928 -0.330898 0.462805 0.600000 0.000000 0.300000
-0.114023 -0.525255 -0.379972 0.000000 1.000000 0.000000
0.426016 0.246235 -0.011536 0.300000 0.600000 0.000000
0.100376 -0.491116 -0.379972 0.000000 1.000000 0.000000
-0.016441 0.811236 -0.225160 0.300000 0.000000 0.600000
-0.366025 -0.119980 -0.245135 0.000000 0.500000 0.500000
0.104504 0.811236 -0.241965 0.300000 0.000000 0.600000
-0.225646 0.331583 0.365324 0.800000 0.200000 0.500000
-0.401623 -0.633174 0.247850 0.600000 0.000000 0.300000
-0.026410 -0.744747 0.088371 0.500000 0.500000 0.000000
-0.366025 -0.524070 -0.110271 0.000000 0.000000 1.000000
-0.400024 -0.624333 -0.397753 0.300000 0.000000 0.600000
0.270158 -0.719123 -0.362173 0.000000 1.000000 0.000000
-0.426096 -0.514864 0.413646 0.800000 0.200000 0.500000
0.363721 -0.678771 -0.240827 1.000000 0.000000 0.000000
0.052249 0.601591 0.387614 0.300000 0.000000 0.600000
0.363721 0.419231 0.066126 0.300000 0.000000 0.600000
0.185547 -0.420860 -0.379972 0.000000 1.000000 0.000000
0.363721 0.047149 0.073258 0.500000 0.000000 0.500000
-0.132007 -0.655416 0.367573 0.800000 0.200000 0.500000
-0.206307 0.811236 -0.347470 0.300000 0.000000 0.600000
0.276751 -0.767661 -0.253378 0.600000 0.300000 0.000000
0.426016 -0.135017 0.155596 0.300000 0.600000 0.000000
-0.224221 -0.388840 -0.362173 0.000000 1.000000 0.000000
0.132795 -0.767661 0.204413 0.600000 0.300000 0.000000
0.124478 -0.206582 0.251822 0.600000 0.000000 0.300000
-0.201302 0.381281 -0.362173 0.600000 0.000000 0.300000
0.130526 0.712771 -0.362173 0.600000 0.000000 0.300000
-0.376387 -0.753647 0.375858 0.800000 0.200000 0.500000
-0.233843 0.039378 -0.379972 0.300000 0.600000 0.000000
0.287639 -0.735848 0.053158 0.500000 0.500000 0.000000
0.078601 -0.206582 -0.114631 0.600000 0.000000 0.300000
0.188963 0.665613 -0.406652 0.300000 0.000000 0.600000
0.394148 -0.144666 0.414312 0.500000 0.500000 0.000000
-0.210637 0.331583 0.243662 0.800000 0.200000 0.500000
-0.390953 -0.732985 0.045284 0.000000 0.500000 0.500000
-0.390537 -0.112777 -0.406652 0.300000 0.000000 0.600000
-0.366025 0.328282 -0.077708 0.600000 0.300000 0.000000
-0.366025 -0.054913 -0.055602 0.000000 0.500000 0.500000
-0.401623 -0.296049 -0.360761 0.600000 0.000000 0.300000
-0.146366 0.021427 0.367573 0.500000 0.500000 0.000000
-0.287496 0.209195 0.450564 0.000000 1.000000 0.000000
-0.329174 -0.197683 -0.323260 0.600000 0.000000 0.300000
0.079839 0.333257 -0.397753 0.300000 0.000000 0.600000
0.381519 -0.382250 -0.240383 1.000000 0.000000 0.000000
-0.366025 0.604083 0.019449 0.600000 0.300000 0.000000
-0.280932 -0.499880 -0.362173 0.000000 1.000000 0.000000
-0.020549 -0.608032 0.367573 0.800000 0.200000 0.500000
0.264027 -0.031444 -0.379972 0.300000 0.600000 0.000000
-0.236661 0.659997 0.387614 0.300000 0.000000 0.600000
0.426016 0.495159 0.296239 0.300000 0.600000 0.000000
-0.035473 0.147253 0.385372 0.500000 0.500000 0.000000
0.399318 -0.116133 0.287499 0.300000 0.600000 0.000000
-0.428321 0.517014 -0.131128 0.600000 0.000000 0.300000
-0.428321 -0.084339 -0.171524 0.600000 0.000000 0.300000
-0.409966 -0.803259 -0.392070 0.600000 0.000000 0.300000
0.381519 -0.530161 0.179921 1.000000 0.000000 0.000000
-0.325492 -0.497919 0.414312 0.800000 0.200000 0.500000
-0.217255 -0.570625 0.387614 0.800000 0.200000 0.500000
-0.401623 0.785087 0.168561 0.300000 0.000000 0.600000
-0.119807 -0.515105 0.367573 0.800000 0.200000 0.500000
-0.426096 0.724535 0.406709 0.300000 0.000000 0.600000
0.426016 0.719156 0.033962 0.300000 0.600000 0.000000
-0.401623 0.337413 0.130076 0.600000 0.000000 0.300000
0.399318 0.592780 -0.001687 0.300000 0.600000 0.000000
0.363721 0.711193 0.073483 0.300000 0.000000 0.600000
-0.266026 0.811236 0.198235 0.300000 0.000000 0.600000
-0.373552 -0.181810 -0.406652 0.300000 0.000000 0.600000
-0.127034 0.757544 -0.433350 0.600000 0.000000 0.300000
0.381519 0.550618 0.357333 0.300000 0.000000 0.600000
0.363721 -0.042168 -0.142674 0.500000 0.000000 0.500000
-0.392823 -0.499759 0.414312 0.800000 0.200000 0.500000
-0.401623 0.796374 -0.247770 0.600000 0.000000 0.300000
-0.070887 -0.207554 -0.406652 0.300000 0.000000 0.600000
0.064116 0.414139 0.414312 0.300000 0.000000 0.600000
0.086416 0.117630 -0.379972 0.300000 0.600000 0.000000
0.363721 -0.403768 -0.320911 1.000000 0.000000 0.000000
-0.401623 0.803681 -0.160248 0.300000 0.000000 0.600000
0.155490 0.398669 0.387614 0.300000 0.000000 0.600000
0.381519 -0.041117 -0.334722 0.500000 0.000000 0.500000
-0.383111 -0.803259 -0.005850 0.600000 0.300000 0.000000
0.232371 -0.741327 -0.362173 0.000000 1.000000 0.000000
-0.337920 -0.581200 0.414312 0.800000 0.200000 0.500000
-0.366025 -0.471333 -0.048763 0.000000 0.000000 1.000000
-0.428321 -0.573610 -0.077053 0.600000 0.000000 0.300000
-0.383824 0.485888 -0.134757 0.600000 0.300000 0.000000
-0.401623 0.549095 -0.220521 0.600000 0.000000 0.300000
-0.366025 0.700531 0.192687 0.600000 0.300000 0.000000
0.004527 0.811236 0.088487 0.300000 0.000000 0.600000
0.373755 0.811236 -0.391454 0.300000 0.000000 0.600000
-0.223135 -0.062403 -0.362173 0.300000 0.600000 0.000000
-0.085777 -0.197683 0.288916 0.600000 0.000000 0.300000
0.020329 0.323008 -0.379972 0.600000 0.000000 0.300000
-0.001213 -0.735848 0.023541 0.500000 0.500000 0.000000
-0.213125 0.639154 -0.362173 0.600000 0.000000 0.300000
0.018292 0.340482 -0.240920 0.800000 0.200000 0.500000
0.399318 0.640019 0.075794 0.300000 0.600000 0.000000
-0.401623 -0.038500 -0.300854 0.600000 0.000000 0.300000
0.065095 0.331583 0.128011 0.800000 0.200000 0.500000
-0.350088 0.756756 0.387614 0.300000 0.000000 0.600000
0.426016 -0.247541 0.286206 0.300000 0.600000 0.000000
0.399318 -0.629015 -0.083922 0.300000 0.600000 0.000000
0.392644 -0.703139 -0.046766 0.500000 0.000000 0.500000
-0.226884 0.261824 -0.397753 0.300000 0.000000 0.600000
-0.428321 0.773488 -0.253300 0.600000 0.000000 0.300000
-0.067254 -0.735848 0.235405 0.500000 0.500000 0.000000
0.192578 -0.803259 0.327526 0.600000 0.300000 0.000000
0.125610 0.051116 0.414312 0.500000 0.500000 0.000000
0.426016 -0.464362 0.299062 0.300000 0.600000 0.000000
0.279286 -0.767661 -0.174293 0.600000 0.300000 0.000000
-0.186107 -0.739754 -0.397753 0.300000 0.000000 0.600000
-0.084407 -0.197683 -0.125524 0.600000 0.000000 0.300000
-0.401623 0.700300 0.338641 0.600000 0.000000 0.300000
0.055524 0.058546 -0.406652 0.300000 0.000000 0.600000
-0.048564 -0.750949 -0.397753 0.300000 0.000000 0.600000
0.037956 -0.735848 -0.185040 0.500000 0.500000 0.000000
-0.419087 0.492014 0.414312 0.300000 0.000000 0.600000
-0.170279 0.804171 0.414312 0.300000 0.000000 0.600000
0.081090 0.111368 0.387614 0.500000 0.500000 0.000000
-0.401623 -0.472578 -0.353791 0.600000 0.000000 0.300000
-0.232353 0.486068 -0.397753 0.300000 0.000000 0.600000
-0.428321 -0.371354 -0.427318 0.600000 0.000000 0.300000
0.044951 -0.735848 0.090042 0.500000 0.500000 0.000000
0.363721 -0.561878 0.288218 1.000000 0.000000 0.000000
0.205851 0.408916 -0.406652 0.300000 0.000000 0.600000
0.192873 -0.197683 -0.133036 0.600000 0.000000 0.300000
0.426016 0.504441 -0.342211 0.300000 0.600000 0.000000
-0.428321 0.228760 0.091618 0.600000 0.000000 0.300000
-0.428321 0.053586 -0.183569 0.600000 0.000000 0.300000
0.420920 0.696079 0.385389 0.300000 0.600000 0.000000
0.210285 0.204925 -0.397753 0.300000 0.000000 0.600000
-0.401623 0.604867 0.024939 0.600000 0.000000 0.300000
0.399318 0.742139 0.339264 0.300000 0.600000 0.000000
0.267526 -0.767661 0.229893 0.600000 0.300000 0.000000
0.168954 -0.103087 -0.379972 0.300000 0.600000 0.000000
-0.428321 -0.424732 -0.317212 0.600000 0.000000 0.300000
-0.224838 -0.053208 -0.397753 0.300000 0.000000 0.600000
0.363721 -0.129331 0.300284 0.500000 0.000000 0.500000
0.372646 -0.215482 0.085108 0.500000 0.000000 0.500000
-0.287602 -0.231912 -0.406652 0.300000 0.000000 0.600000
-0.401623 0.465149 0.027267 0.600000 0.000000 0.300000
0.330363 -0.767661 0.220099 0.600000 0.300000 0.000000
0.364491 -0.362076 -0.095828 1.000000 0.000000 0.000000
0.381519 -0.630353 0.263390 1.000000 0.000000 0.000000
0.180363 -0.210818 0.385372 0.500000 0.500000 0.000000
-0.162074 0.331583 -0.065618 0.800000 0.200000 0.500000
0.310804 -0.328669 0.387614 0.800000 0.200000 0.500000
-0.428321 0.676819 0.073152 0.600000 0.000000 0.300000
0.000230 0.775639 -0.047833 0.300000 0.000000 0.600000
0.242196 0.602671 0.414312 0.300000 0.000000 0.600000
0.195342 -0.383158 0.414312 0.800000 0.200000 0.500000
0.216622 0.680685 0.414312 0.300000 0.000000 0.600000
-0.259218 -0.522009 -0.379972 0.000000 1.000000 0.000000
-0.401623 0.619311 -0.040540 0.600000 0.000000 0.300000
-0.364698 0.331583 0.234534 0.800000 0.200000 0.500000
0.426016 -0.355711 0.066082 0.300000 0.600000 0.000000
-0.401623 0.277691 -0.322352 0.600000 0.000000 0.300000
-0.023942 0.811236 0.009224 0.300000 0.000000 0.600000
-0.428321 -0.469466 -0.255247 0.600000 0.000000 0.300000
0.378511 0.374524 -0.379972 0.600000 0.000000 0.300000
0.426016 0.055853 0.103344 0.300000 0.600000 0.000000
0.387813 0.607680 0.387614 0.300000 0.000000 0.600000
-0.268901 -0.206582 -0.043991 0.600000 0.000000 0.300000
0.168489 0.811236 -0.399744 0.300000 0.000000 0.600000
-0.084236 0.340482 0.236663 0.800000 0.200000 0.500000
0.399318 -0.430274 0.326156 0.300000 0.600000 0.000000
0.399318 0.717337 -0.173338 0.300000 0.600000 0.000000
-0.141109 -0.365792 -0.379972 0.000000 1.000000 0.000000
0.271195 -0.803259 0.030507 0.600000 0.300000 0.000000
0.243922 0.104189 -0.362173 0.300000 0.600000 0.000000
-0.366025 0.564108 0.025443 0.600000 0.300000 0.000000
0.346355 -0.708766 0.387614 0.800000 0.200000 0.500000
0.087943 -0.175651 0.367573 0.500000 0.500000 0.000000
0.363721 0.543297 0.119523 0.300000 0.000000 0.600000
0.263361 0.632101 0.414312 0.300000 0.000000 0.600000
0.054785 0.687619 -0.433350 0.600000 0.000000 0.300000
0.295082 -0.462760 0.387614 0.800000 0.200000 0.500000
-0.199897 0.055312 0.414312 0.500000 0.500000 0.000000
0.426016 0.397189 -0.209040 0.300000 0.600000 0.000000
0.079146 -0.648459 0.414312 0.800000 0.200000 0.500000
-0.047645 -0.767661 0.359311 0.600000 0.300000 0.000000
-0.428321 0.785642 0.089875 0.600000 0.000000 0.300000
-0.423119 -0.131148 0.385389 0.600000 0.000000 0.300000
0.420848 -0.479402 0.414312 0.800000 0.200000 0.500000
0.399318 -0.465636 0.257385 0.300000 0.600000 0.000000
-0.301574 0.028028 0.367573 0.500000 0.500000 0.000000
-0.428321 0.373953 0.143083 0.600000 0.000000 0.300000
0.307776 0.420066 -0.406652 0.300000 0.000000 0.600000
0.399766 -0.068012 0.414312 0.500000 0.500000 0.000000
-0.401623 -0.603480 0.020747 0.600000 0.000000 0.300000
-0.313074 -0.803259 -0.402850 0.600000 0.300000 0.000000
0.381519 0.649604 0.370314 0.300000 0.000000 0.600000
-0.187783 0.372779 0.414312 0.300000 0.000000 0.600000
0.399318 -0.340814 0.229610 0.300000 0.600000 0.000000
0.426016 -0.718574 -0.265410 0.300000 0.600000 0.000000
