ply
format ascii 1.0
element vertex 1264
property float x
property float y
property float z
property uchar red
property uchar green
property uchar blue
end_header
-0.196774 0.811236 0.377831 76 0 153
0.073631 -0.803259 -0.219760 153 76 0
0.410149 0.811236 -0.315159 76 153 0
0.136120 0.275690 -0.397753 76 0 153
-0.366025 0.006591 0.312433 0 127 127
0.426016 -0.448076 -0.171966 76 153 0
-0.422678 -0.803259 0.318117 153 0 76
-0.011466 -0.458965 -0.406652 76 0 153
0.149567 0.331583 0.220044 204 51 127
-0.428321 0.584473 0.241645 153 0 76
0.426016 -0.077294 -0.332296 76 153 0
0.038128 -0.269543 0.408368 127 127 0
0.426016 -0.285342 -0.250744 76 153 0
0.363721 0.118268 -0.308293 127 0 127
0.426016 -0.422676 0.358391 76 153 0
-0.366025 -0.418351 0.185824 0 0 255
-0.170696 0.085195 -0.406652 76 0 153
0.140117 -0.744696 -0.433350 204 51 127
-0.428321 -0.395772 -0.432128 153 0 76
-0.425633 0.796306 0.414312 76 0 153
0.219897 -0.672517 -0.362173 0 255 0
-0.263541 0.331583 0.134783 204 51 127
0.426016 0.402409 0.003019 76 153 0
-0.176572 -0.206582 -0.304265 153 0 76
0.018422 0.357908 -0.406652 76 0 153
0.240769 -0.803259 -0.319562 153 76 0
0.426016 -0.687836 -0.403068 76 153 0
-0.292035 -0.098408 -0.406652 76 0 153
0.246500 -0.562134 0.414312 204 51 127
-0.290938 0.775639 -0.083673 76 0 153
-0.209489 0.775639 0.149879 76 0 153
0.303312 -0.197683 -0.096939 153 0 76
0.312719 -0.735848 0.212759 127 127 0
-0.366025 0.612306 -0.336994 153 76 0
0.026336 -0.206582 -0.007886 153 0 76
-0.110174 -0.648506 0.367573 204 51 127
-0.103745 0.775639 0.012315 76 0 153
0.426016 -0.067120 -0.077239 76 153 0
-0.428321 -0.115365 0.319602 153 0 76
0.426016 0.503853 -0.331257 76 153 0
-0.428321 -0.344012 0.251143 153 0 76
0.424780 -0.135344 -0.433350 76 153 0
0.278538 0.670131 0.414312 76 0 153
-0.201850 -0.251500 0.387614 127 127 0
-0.314727 0.409977 0.414312 76 0 153
-0.102138 -0.197683 0.200873 153 0 76
-0.069461 -0.042882 0.367573 127 127 0
-0.315931 -0.206582 0.303670 153 0 76
-0.428321 0.796067 -0.419654 153 0 76
0.031063 0.351062 0.414312 76 0 153
-0.061749 -0.735848 0.258818 127 127 0
0.426016 -0.529297 -0.066638 76 153 0
0.426016 -0.215381 0.385179 76 153 0
-0.124921 -0.197683 -0.108972 153 0 76
-0.068951 0.331583 0.285074 204 51 127
-0.153278 -0.803259 0.384328 204 51 127
-0.311067 -0.292692 0.387614 204 51 127
0.083447 0.702106 -0.362173 153 0 76
-0.080454 0.677278 0.367573 76 0 153
-0.428321 0.206054 0.335948 153 0 76
0.333285 0.331583 0.215801 204 51 127
-0.366025 0.511380 -0.207263 153 76 0
0.399318 0.679834 -0.413544 76 0 153
-0.354803 -0.803259 0.124384 153 76 0
0.334755 -0.735848 0.017486 127 127 0
0.322556 -0.053723 0.367573 127 127 0
-0.313828 -0.735848 -0.202754 127 127 0
-0.383824 -0.577557 -0.330493 0 0 255
0.250853 -0.589675 -0.431769 204 51 127
0.363721 0.444420 0.318956 76 0 153
0.136452 0.551399 0.414312 76 0 153
0.085067 0.746018 0.449384 153 0 76
0.004362 -0.803259 -0.336174 153 76 0
0.426016 0.218305 0.076871 76 153 0
0.176026 0.811236 0.175535 76 0 153
0.426016 0.109571 0.256364 76 153 0
0.323788 -0.409769 -0.362173 0 255 0
0.363721 0.713379 0.083136 76 0 153
0.259948 0.308002 0.414312 76 0 153
0.399318 0.249772 0.256619 76 153 0
-0.388274 0.379117 0.335535 153 76 0
-0.428321 0.132858 -0.176793 153 0 76
0.426016 0.776609 -0.071678 76 153 0
-0.320864 0.340482 -0.303213 204 51 127
0.338183 0.340482 -0.206567 204 51 127
0.299322 0.775639 -0.199183 76 0 153
-0.338585 -0.803259 -0.408170 153 76 0
-0.428321 0.799452 0.176818 153 0 76
0.123753 -0.342908 0.458906 153 0 76
0.355154 0.746105 0.462316 153 0 76
-0.336182 0.811236 -0.312844 76 0 153
-0.284270 0.129434 0.385372 127 127 0
-0.331282 0.176089 -0.367859 76 153 0
0.186962 -0.256040 -0.397753 76 0 153
0.414369 -0.593570 0.414312 204 51 127
0.426016 -0.168056 -0.135995 76 153 0
-0.015382 0.331583 -0.039129 204 51 127
-0.428321 -0.170865 -0.087249 153 0 76
-0.428321 0.615710 0.059269 153 0 76
0.189592 0.045059 0.414312 127 127 0
0.305856 0.146933 -0.406652 76 0 153
-0.334824 0.252097 0.387614 127 127 0
-0.320194 0.623953 0.414312 76 0 153
-0.334335 -0.206582 -0.210607 153 0 76
0.100354 0.166128 -0.362173 76 153 0
-0.107935 -0.803259 -0.208994 153 76 0
0.316632 0.811236 0.029201 76 0 153
0.242209 0.170688 0.367573 127 127 0
0.178933 0.811236 -0.312345 76 0 153
-0.169541 0.648528 -0.362173 153 0 76
0.426016 -0.789517 -0.260494 76 153 0
0.346112 0.551259 0.387614 76 0 153
-0.428321 0.348580 0.077833 153 0 76
-0.096939 0.811236 -0.385060 76 0 153
0.381519 0.345982 -0.345792 0 0 255
0.170104 0.198223 0.461590 0 255 0
0.426016 -0.143275 -0.245025 76 153 0
-0.428321 0.799061 -0.211302 153 0 76
0.216901 -0.770321 0.385389 153 76 0
-0.428321 0.427380 -0.241379 153 0 76
-0.428321 0.194257 0.198940 153 0 76
-0.366025 0.712616 0.029923 153 76 0
-0.428321 -0.642341 0.161520 153 0 76
-0.124595 0.460777 -0.362173 153 0 76
0.426016 -0.324039 0.157500 76 153 0
-0.428321 0.014155 0.187547 153 0 76
0.356670 0.811236 0.244790 76 0 153
-0.147357 0.331583 -0.021969 204 51 127
-0.366025 0.699621 -0.236029 153 76 0
-0.129228 -0.343007 0.459209 153 0 76
-0.122748 0.096293 0.414312 127 127 0
-0.313910 0.029831 0.414312 127 127 0
0.399318 0.291759 0.005264 76 153 0
0.426016 -0.054294 0.308766 76 153 0
-0.088050 -0.197683 0.315797 153 0 76
0.297640 -0.206582 0.273127 153 0 76
0.068325 -0.735848 -0.019406 127 127 0
0.101660 -0.197683 0.190440 153 0 76
0.293203 -0.735848 -0.133961 127 127 0
0.363721 -0.596458 -0.254710 255 0 0
0.426016 -0.356680 -0.342499 76 153 0
-0.366025 0.526283 -0.026453 153 76 0
0.316656 0.811236 -0.432897 76 0 153
0.016618 0.161723 0.367573 127 127 0
0.339863 -0.512809 -0.362173 0 255 0
-0.050097 -0.735848 0.099223 127 127 0
-0.164048 0.340482 0.103389 204 51 127
-0.337444 -0.600441 -0.433350 204 51 127
-0.166494 -0.161342 -0.397753 76 0 153
-0.366025 0.570631 0.332535 153 76 0
-0.010959 0.775639 0.188391 76 0 153
0.122116 0.340482 -0.183128 204 51 127
0.426016 0.578365 -0.039758 76 153 0
-0.329727 0.775639 0.308424 76 0 153
0.182914 -0.735848 -0.030445 127 127 0
-0.320752 0.489031 -0.406652 76 0 153
0.214005 -0.383438 -0.362173 0 255 0
-0.334434 0.331583 0.241507 204 51 127
0.363721 0.437622 0.100735 76 0 153
0.013502 0.331583 -0.144486 204 51 127
0.426016 0.070370 0.016302 76 153 0
-0.143854 0.201934 0.464287 0 255 0
0.363721 -0.488899 0.049032 255 0 0
-0.328067 0.603220 -0.433350 153 0 76
0.054546 -0.803259 -0.430256 204 51 127
-0.179593 -0.735848 0.172898 127 127 0
0.192205 0.340482 -0.087286 204 51 127
0.376302 0.121169 0.414312 127 127 0
0.305732 0.340482 -0.105638 204 51 127
-0.383824 0.114501 -0.085613 0 127 127
0.066415 -0.269572 -0.406652 76 0 153
0.419789 0.295935 -0.433350 76 153 0
-0.422257 -0.803259 -0.082038 153 0 76
-0.428321 0.786196 0.074441 153 0 76
0.036699 -0.611752 -0.433350 204 51 127
0.200393 -0.803259 -0.140631 153 76 0
-0.428321 -0.639837 -0.397797 76 0 153
-0.206233 0.797000 -0.433350 76 0 153
-0.372450 0.267549 -0.406652 76 0 153
-0.428321 0.112499 -0.359278 153 0 76
0.189207 -0.206582 0.122365 153 0 76
-0.371179 -0.362076 0.059597 0 0 255
0.426016 -0.229749 0.229866 76 153 0
0.363721 0.043837 -0.188194 127 0 127
-0.211116 -0.380804 0.367573 204 51 127
0.426016 0.192107 -0.278395 76 153 0
-0.075171 0.272904 -0.406652 76 0 153
-0.224719 -0.366402 -0.362173 0 255 0
-0.077408 -0.197683 -0.019303 153 0 76
0.123684 -0.392947 0.367573 204 51 127
-0.428321 -0.222079 -0.255374 153 0 76
-0.372907 0.715133 -0.397753 76 0 153
-0.178714 -0.803259 -0.030461 153 76 0
-0.366025 -0.381456 -0.265268 0 0 255
0.183746 -0.562860 -0.362173 0 255 0
-0.177745 0.340482 0.319635 204 51 127
-0.428321 0.290764 -0.186099 153 0 76
0.017301 0.570438 0.385372 76 0 153
-0.428321 0.401591 -0.101632 153 0 76
0.362094 0.483455 -0.406652 76 0 153
0.216348 -0.202914 0.414312 127 127 0
0.220719 0.699340 -0.362173 153 0 76
0.426016 0.523204 0.100574 76 153 0
-0.428321 0.622753 -0.115292 153 0 76
0.399318 0.111847 -0.405311 76 0 153
0.426016 0.491364 -0.200296 76 153 0
-0.188398 -0.473733 0.414312 204 51 127
0.090228 0.811236 -0.363600 76 0 153
-0.001512 0.141718 -0.362173 76 153 0
-0.359260 -0.735848 -0.034860 127 127 0
0.194396 0.053865 -0.406652 76 0 153
-0.428321 0.015755 -0.423427 153 0 76
0.363721 -0.112581 0.044287 127 0 127
0.166799 0.340482 0.012968 204 51 127
0.426016 0.133352 -0.064823 76 153 0
0.343238 -0.735848 0.329717 127 127 0
-0.066060 -0.803259 0.337733 153 76 0
0.144828 -0.744747 0.113420 127 127 0
0.243651 0.775639 -0.029373 76 0 153
-0.428321 0.264405 0.012961 153 0 76
0.363721 -0.631784 0.121639 255 0 0
-0.105679 -0.803259 -0.311198 153 76 0
-0.074916 -0.735848 -0.038504 127 127 0
0.149340 0.340482 0.319165 204 51 127
-0.366023 -0.472435 -0.397753 76 0 153
0.426016 0.644657 0.233221 76 153 0
-0.107749 -0.589675 -0.430602 204 51 127
-0.261611 0.107835 -0.362173 76 153 0
-0.366025 -0.010164 0.002674 0 127 127
-0.329371 -0.707491 0.387614 204 51 127
0.021494 -0.803259 0.402406 204 51 127
-0.028737 -0.333114 0.464416 153 0 76
0.322047 -0.693728 -0.433350 204 51 127
-0.024334 -0.454971 0.367573 204 51 127
0.363721 -0.370342 -0.164586 255 0 0
0.065735 0.089866 0.414312 127 127 0
-0.428321 0.460896 0.162460 153 0 76
0.414551 -0.803259 0.366184 76 153 0
-0.261288 -0.735848 0.319631 127 127 0
-0.239664 -0.735848 -0.130744 127 127 0
0.000669 0.811236 -0.323495 76 0 153
-0.335177 0.331583 0.052890 204 51 127
0.121887 -0.113306 0.414312 127 127 0
-0.366025 -0.515919 0.357960 0 0 255
-0.352734 -0.301612 -0.397753 76 0 153
-0.428321 0.546707 -0.289217 153 0 76
-0.100247 0.806786 0.401615 76 0 153
-0.277639 -0.206582 -0.303167 153 0 76
-0.174882 0.567926 0.414312 76 0 153
0.034332 -0.197683 0.344014 153 0 76
0.334967 -0.224378 -0.406652 76 0 153
-0.226242 -0.451947 -0.406652 76 0 153
-0.366025 -0.056672 -0.128389 0 127 127
-0.199217 0.811236 -0.088001 76 0 153
-0.279460 -0.735848 0.170716 127 127 0
-0.274790 0.553213 0.367573 76 0 153
0.343584 -0.206582 0.042753 153 0 76
-0.194221 0.278800 -0.397753 76 0 153
-0.428321 -0.593046 0.068639 153 0 76
-0.366025 -0.420514 -0.121516 0 0 255
0.099747 -0.102799 -0.362173 76 153 0
-0.366025 -0.565353 -0.089266 0 0 255
-0.346728 0.400577 -0.379972 153 0 76
-0.401623 -0.242685 0.097013 153 0 76
0.058141 -0.735848 -0.295567 127 127 0
0.182033 -0.160152 -0.397753 76 0 153
-0.366025 -0.080567 -0.258402 0 127 127
-0.366025 0.135331 0.324001 0 127 127
0.426016 0.679890 -0.107354 76 153 0
0.426016 -0.627424 -0.319156 76 153 0
0.336079 0.340482 0.327308 204 51 127
0.365182 0.714254 -0.269346 76 0 153
-0.074894 -0.172536 0.414312 127 127 0
-0.401623 -0.265518 0.201228 153 0 76
-0.339352 0.811236 0.217319 76 0 153
0.338731 0.203810 0.387614 127 127 0
-0.346416 -0.342833 0.459489 153 0 76
-0.077227 0.649331 -0.433350 153 0 76
0.284627 -0.803259 0.152921 153 76 0
0.008905 0.775639 0.318265 76 0 153
-0.390006 -0.726527 -0.126555 0 0 255
-0.274098 -0.206582 0.053952 153 0 76
-0.366025 -0.739234 0.278320 127 127 0
0.267265 0.239065 -0.406652 76 0 153
0.258706 0.340482 -0.271636 204 51 127
-0.428321 -0.743376 0.096975 153 0 76
-0.214222 0.725404 0.414312 76 0 153
0.426016 0.379688 -0.217634 76 153 0
0.209521 0.775639 0.352201 76 0 153
-0.346116 -0.174871 -0.406652 76 0 153
-0.164349 0.775639 0.232868 76 0 153
-0.113083 0.014445 -0.362173 76 153 0
0.022133 -0.197683 -0.308346 153 0 76
0.337561 0.606162 -0.433350 153 0 76
0.363721 -0.498641 -0.238052 255 0 0
-0.114601 -0.543669 0.414312 204 51 127
0.381519 0.003505 -0.346814 127 0 127
-0.147967 -0.767661 -0.386395 153 76 0
0.363721 -0.557196 0.234809 255 0 0
-0.405238 -0.800161 0.414312 204 51 127
0.162823 0.811236 0.270443 76 0 153
-0.366025 0.433705 -0.036747 153 76 0
0.214627 -0.735848 0.242340 127 127 0
0.119651 -0.688300 -0.362173 0 255 0
0.015157 -0.206582 0.131844 153 0 76
-0.428321 0.728362 0.332187 153 0 76
0.426016 -0.646485 -0.014472 76 153 0
0.323384 -0.296930 0.387614 204 51 127
0.055745 -0.803259 0.079385 153 76 0
-0.260110 -0.744747 -0.351063 0 255 0
-0.161012 0.811236 0.076051 76 0 153
0.426016 0.242989 -0.178051 76 153 0
-0.037813 0.484499 0.367573 76 0 153
-0.338770 -0.022959 -0.379972 76 153 0
-0.428321 0.393527 -0.327754 153 0 76
-0.228935 0.645281 -0.433350 153 0 76
0.426016 -0.398852 0.018433 76 153 0
0.015624 0.340482 0.098227 204 51 127
0.073550 0.476959 -0.397753 76 0 153
-0.334050 0.703374 0.367573 76 0 153
0.426016 -0.633291 -0.156040 76 153 0
0.381519 0.585397 -0.352252 76 0 153
0.244223 -0.803259 0.033154 153 76 0
-0.411693 0.421044 0.414312 76 0 153
0.111159 0.775639 -0.175519 76 0 153
-0.130571 0.483048 0.387614 76 0 153
-0.428321 0.071649 0.348733 153 0 76
-0.344314 0.811236 0.029533 76 0 153
0.158942 -0.447806 -0.397753 76 0 153
0.126757 -0.803259 -0.059254 153 76 0
-0.364774 0.199464 0.462492 0 255 0
0.426016 0.024884 0.168814 76 153 0
-0.396689 0.811236 -0.118509 153 0 76
-0.129126 0.340482 -0.201685 204 51 127
-0.428321 0.155651 0.074293 153 0 76
0.209638 0.545041 -0.406652 76 0 153
0.363721 0.494016 0.241791 76 0 153
-0.225681 0.390308 0.385372 76 0 153
-0.037013 0.587924 -0.362173 153 0 76
0.089970 -0.767661 0.227349 153 76 0
-0.053875 0.811236 -0.176324 76 0 153
0.341098 -0.803259 0.079323 153 76 0
-0.133924 0.005400 0.414312 127 127 0
-0.350766 -0.123633 0.367573 127 127 0
-0.428321 0.385758 0.244977 153 0 76
0.426016 -0.384883 -0.091235 76 153 0
0.135145 -0.707141 0.387614 204 51 127
-0.401623 0.206494 -0.223600 153 0 76
-0.428321 0.072070 -0.244649 153 0 76
0.423791 0.387305 0.388086 76 0 153
-0.428321 -0.011636 -0.203710 153 0 76
0.363721 0.126914 0.320925 127 0 127
0.426016 0.644007 0.330242 76 153 0
0.216597 0.373903 -0.406652 76 0 153
0.140569 -0.206582 0.007388 153 0 76
-0.083828 0.171727 0.367573 127 127 0
0.117225 0.224826 0.387614 127 127 0
0.399318 0.280094 0.171329 76 153 0
-0.428321 -0.087829 -0.334826 153 0 76
-0.428321 -0.580113 -0.247878 153 0 76
-0.020010 0.811236 0.099687 76 0 153
-0.017047 -0.803259 0.207579 153 76 0
0.064847 -0.415282 -0.362173 0 255 0
0.426016 0.125267 0.115443 76 153 0
0.220796 -0.206582 0.320258 153 0 76
0.026027 -0.735848 -0.169866 127 127 0
-0.428321 0.031456 -0.085343 153 0 76
0.185258 0.470506 -0.362173 153 0 76
-0.024273 -0.645419 0.414312 204 51 127
0.329447 0.394642 -0.406652 76 0 153
0.363721 -0.082460 -0.267616 127 0 127
0.426016 -0.523566 0.359066 76 153 0
-0.366025 -0.728599 -0.292502 127 127 0
-0.311432 -0.380260 0.367573 204 51 127
0.426016 0.477568 -0.046104 76 153 0
-0.366025 0.655285 0.175479 153 76 0
-0.321469 0.331583 -0.095577 204 51 127
0.363721 -0.734857 -0.190465 127 127 0
0.076375 0.775639 -0.075544 76 0 153
-0.304421 -0.803259 0.050538 153 76 0
-0.428321 0.051714 0.096524 153 0 76
0.281707 -0.735848 -0.272587 127 127 0
-0.428321 0.694487 -0.052860 153 0 76
0.352437 -0.803259 0.255369 153 76 0
-0.366025 -0.135498 -0.034393 0 127 127
-0.287201 -0.716739 -0.433350 204 51 127
-0.366025 -0.096712 0.124994 0 127 127
0.211658 -0.206582 -0.109594 153 0 76
0.344405 -0.767661 -0.065000 255 0 0
0.251678 -0.051866 -0.362173 76 153 0
0.036721 0.727674 -0.433350 153 0 76
0.363721 0.678878 0.174422 76 0 153
-0.160090 -0.628760 -0.362173 0 255 0
-0.025697 0.775639 -0.087669 76 0 153
0.371239 -0.362076 0.081821 255 0 0
-0.366025 -0.622024 -0.007725 0 0 255
0.328728 -0.803259 -0.390596 153 76 0
-0.428321 0.660705 -0.295776 153 0 76
0.214077 0.484145 0.367573 76 0 153
0.363721 0.612017 -0.093933 76 0 153
-0.033325 0.733742 0.457919 153 0 76
-0.366025 -0.158134 0.237105 0 127 127
-0.428321 0.193571 -0.322042 153 0 76
0.060282 0.340482 0.192415 204 51 127
-0.221782 -0.132270 0.367573 127 127 0
-0.293167 0.331583 -0.208592 204 51 127
-0.366025 0.451473 -0.142988 153 76 0
-0.428321 0.308152 0.169135 153 0 76
-0.117298 -0.803259 0.264848 153 76 0
0.079596 0.331583 -0.349838 153 0 76
0.039238 -0.171633 -0.397753 76 0 153
0.227301 0.811236 -0.239425 76 0 153
-0.428321 -0.337189 -0.109466 153 0 76
0.426016 -0.004237 -0.150102 76 153 0
-0.366025 -0.146421 -0.146237 0 127 127
-0.084654 -0.505828 -0.397753 76 0 153
0.426016 -0.444858 -0.331786 76 153 0
-0.150410 0.653994 0.414312 76 0 153
-0.196947 -0.040807 0.367573 127 127 0
-0.220553 -0.803259 0.226043 153 76 0
0.046255 -0.603381 0.367573 204 51 127
0.363721 -0.129061 0.352441 127 127 0
0.273894 -0.462072 0.414312 204 51 127
-0.428321 0.510483 0.341508 153 0 76
0.009278 0.811236 -0.236097 76 0 153
0.094013 -0.600389 -0.362173 0 255 0
0.201258 0.247108 0.387614 127 127 0
-0.366025 0.564379 -0.131220 153 76 0
0.426016 -0.075947 0.224832 76 153 0
0.322810 0.667250 -0.362173 153 0 76
0.318643 0.340482 0.070288 204 51 127
-0.188681 0.504970 -0.406652 76 0 153
0.064367 0.331583 0.006426 204 51 127
0.023098 0.268621 0.389674 76 0 153
0.179973 -0.735848 -0.319074 127 127 0
0.423791 0.742887 0.410015 76 0 153
0.363721 0.390345 -0.056420 76 0 153
-0.383824 -0.389977 -0.358364 153 0 76
-0.428321 -0.626730 0.350109 153 0 76
0.426016 0.619309 -0.215214 76 153 0
0.399318 0.280506 0.337095 76 153 0
-0.050935 0.382880 -0.362173 153 0 76
0.426016 -0.228177 0.030517 76 153 0
0.423791 -0.312582 0.392638 76 153 0
-0.211029 0.358165 -0.362173 153 0 76
-0.428321 -0.466541 -0.017881 153 0 76
0.246103 -0.006529 0.367573 127 127 0
-0.370878 0.738970 0.457739 153 0 76
-0.428321 -0.040495 0.267679 153 0 76
-0.072036 -0.349645 0.387614 204 51 127
-0.428321 -0.442539 0.239915 153 0 76
0.363721 -0.457499 0.309195 255 0 0
0.381519 -0.710526 0.150884 127 0 127
0.363721 0.154370 -0.120687 127 0 127
-0.259124 0.775639 0.080053 76 0 153
0.426016 -0.678800 0.311686 76 153 0
-0.249639 0.340482 0.250952 204 51 127
0.377891 0.021342 0.414312 127 127 0
-0.274465 -0.531409 0.367573 204 51 127
0.000020 -0.735848 -0.084592 127 127 0
-0.428321 -0.212105 -0.353007 153 0 76
0.426016 0.360663 0.192091 76 153 0
-0.428321 0.306818 -0.099647 153 0 76
-0.283252 0.316648 0.414312 76 0 153
-0.233705 0.242673 0.387614 127 127 0
0.426016 0.417108 -0.329956 76 153 0
0.426016 -0.381910 0.271189 76 153 0
-0.250630 -0.744747 -0.259448 127 127 0
0.426016 0.804370 0.129340 76 153 0
-0.258926 -0.606728 -0.362173 0 255 0
-0.241174 -0.801267 0.414312 204 51 127
0.106504 -0.206582 0.275142 153 0 76
-0.085044 0.811236 0.230712 76 0 153
0.363721 -0.679764 0.251863 255 0 0
0.363721 -0.119100 -0.103489 127 0 127
0.258884 0.775639 0.161450 76 0 153
0.130596 0.775639 0.042828 76 0 153
0.363721 -0.473477 -0.120122 255 0 0
-0.220601 -0.087208 -0.362173 76 153 0
0.381519 -0.177310 0.175152 127 0 127
0.217831 -0.631119 0.367573 204 51 127
0.275372 -0.206582 -0.247352 153 0 76
0.034689 0.032768 -0.406652 76 0 153
0.101912 0.614027 -0.397753 153 0 76
-0.319443 -0.206582 -0.017718 153 0 76
-0.045916 0.331583 -0.215342 204 51 127
-0.401623 -0.294381 0.336459 153 0 76
0.120373 -0.279326 0.387614 127 127 0
-0.058236 -0.753647 -0.365292 153 76 0
0.363721 -0.033889 -0.030801 127 0 127
0.040479 0.554528 -0.362173 153 0 76
0.363721 -0.585153 -0.077542 255 0 0
-0.366025 0.530827 0.220703 153 76 0
-0.143219 -0.206582 0.041411 153 0 76
-0.428321 -0.300272 -0.215318 153 0 76
-0.083759 -0.735848 -0.164492 127 127 0
0.381519 -0.471464 0.192753 255 0 0
0.363721 -0.030928 0.092309 127 0 127
-0.383824 0.541299 0.054433 153 76 0
0.256963 0.632201 -0.433350 153 0 76
-0.397173 0.342153 -0.252642 153 76 0
-0.269247 0.775639 -0.250989 76 0 153
-0.166534 -0.735848 -0.201338 127 127 0
-0.428321 -0.566130 -0.147697 153 0 76
-0.366025 -0.698255 0.167265 0 0 255
0.363721 0.096178 0.196589 127 0 127
0.381519 -0.211839 0.309607 127 0 127
-0.215819 -0.735848 0.071584 127 127 0
0.346154 0.775639 -0.363176 76 0 153
-0.401623 -0.707718 -0.207188 153 0 76
0.426016 0.699732 0.029087 76 153 0
0.239264 0.775639 -0.390663 76 0 153
0.426016 0.541040 0.209762 76 153 0
-0.428321 0.740748 0.245587 153 0 76
0.126170 -0.206582 -0.167578 153 0 76
0.171341 -0.526266 0.414312 204 51 127
0.103368 -0.803259 0.330476 153 76 0
0.363721 0.407577 0.230888 76 0 153
-0.183143 -0.708636 -0.433350 204 51 127
-0.366025 0.043845 0.233976 0 127 127
0.277960 0.509588 0.414312 76 0 153
-0.366025 -0.505078 0.092297 0 0 255
0.426016 -0.550941 -0.220906 76 153 0
0.350552 -0.658768 0.387614 255 0 0
0.426016 -0.534848 0.085837 76 153 0
-0.428321 -0.103299 0.025919 153 0 76
-0.268569 -0.303108 -0.397753 76 0 153
-0.428321 -0.710269 0.020988 153 0 76
0.426016 0.730301 -0.327617 76 153 0
0.156901 -0.803259 -0.254340 153 76 0
-0.052292 0.750221 -0.433350 153 0 76
0.012839 -0.735848 0.042000 127 127 0
-0.366025 0.458913 0.108017 153 76 0
0.172539 -0.197683 -0.294284 153 0 76
-0.366025 0.141816 0.213305 0 127 127
0.341463 0.400502 0.385372 76 0 153
0.372613 0.775639 -0.134629 76 0 153
0.366056 -0.354537 -0.406652 76 0 153
0.200901 0.365671 0.414312 76 0 153
0.363721 0.584281 0.014919 76 0 153
0.063648 0.410710 0.367573 76 0 153
0.042458 -0.803259 -0.063238 153 76 0
-0.360141 -0.215482 0.377073 127 127 0
0.181020 -0.803259 -0.388183 153 76 0
0.365865 0.176089 -0.224415 127 0 127
0.426016 -0.802351 -0.346089 76 153 0
-0.013126 -0.803259 -0.211438 153 76 0
-0.161156 0.775639 -0.272314 76 0 153
-0.236204 -0.632446 0.367573 204 51 127
-0.265143 0.739613 -0.433350 153 0 76
-0.428321 -0.464986 -0.218389 153 0 76
0.017652 -0.009623 0.385372 127 127 0
-0.050570 -0.023099 -0.406652 76 0 153
-0.207670 -0.197683 -0.094375 153 0 76
0.343770 0.280583 -0.406652 76 0 153
-0.366025 0.068223 -0.317959 0 127 127
0.399318 -0.254353 -0.045303 76 153 0
-0.112564 -0.735848 0.340590 127 127 0
-0.428321 0.611384 0.142312 153 0 76
-0.008919 -0.744747 0.335843 127 127 0
-0.366025 0.645684 -0.174557 153 76 0
0.363721 0.606715 0.270187 76 0 153
0.230179 -0.393002 0.414312 204 51 127
-0.366025 0.001713 0.136167 0 127 127
0.344565 0.714771 0.387614 76 0 153
0.426016 -0.800974 0.068613 76 153 0
0.089075 0.605155 0.367573 76 0 153
-0.221088 -0.197683 0.201274 153 0 76
-0.366025 -0.442737 0.032434 0 0 255
0.297910 -0.118933 0.414312 127 127 0
-0.031934 -0.657526 -0.433350 204 51 127
0.287137 -0.157899 -0.406652 76 0 153
-0.060499 0.322683 0.382277 76 0 153
-0.221806 -0.803259 -0.308972 153 76 0
-0.292865 0.473987 0.367573 76 0 153
-0.366025 -0.512540 0.237419 0 0 255
-0.288624 0.243102 -0.397753 76 0 153
0.334104 -0.580812 0.414312 204 51 127
-0.084917 -0.803259 0.063991 153 76 0
-0.017943 0.199318 0.462386 0 255 0
0.289595 -0.337040 0.449384 153 0 76
-0.426096 0.571558 0.401827 153 0 76
-0.394381 0.037615 0.414312 127 127 0
0.426016 -0.359734 -0.219373 76 153 0
0.426016 0.275261 -0.344238 76 153 0
-0.401623 0.295823 0.338492 153 0 76
0.151515 0.734188 -0.406652 76 0 153
-0.428321 0.573891 -0.044661 153 0 76
-0.428321 -0.697579 0.312094 153 0 76
0.426016 -0.273628 -0.352148 76 153 0
-0.046961 -0.098809 -0.379972 76 153 0
0.058157 0.111457 -0.406652 76 0 153
-0.366025 0.083502 0.045505 0 127 127
0.106597 -0.026318 -0.397753 76 0 153
0.243094 0.122210 -0.362173 76 153 0
-0.428321 -0.130341 -0.265665 153 0 76
-0.148328 -0.188244 0.367573 127 127 0
0.426016 -0.710980 -0.326476 76 153 0
0.372533 0.209282 0.459918 0 255 0
0.005138 0.331583 -0.320787 204 51 127
-0.428321 -0.477993 0.168338 153 0 76
-0.200396 -0.803259 -0.110988 153 76 0
-0.428321 -0.192767 -0.181092 153 0 76
-0.366025 0.168579 -0.141872 0 127 127
0.174698 0.624775 -0.362173 153 0 76
-0.019224 0.417206 0.414312 76 0 153
-0.011833 -0.803259 0.121848 153 76 0
-0.030497 0.627334 0.414312 76 0 153
0.363721 0.418074 -0.185010 76 0 153
0.028134 -0.537135 -0.406652 76 0 153
0.423791 0.568763 0.390847 76 0 153
-0.401623 -0.605264 0.226798 0 0 255
0.426016 -0.229420 -0.194119 76 153 0
0.368376 -0.620795 -0.433350 204 51 127
0.426016 -0.481540 -0.003098 76 153 0
-0.057084 -0.264284 -0.406652 76 0 153
0.377663 -0.393705 0.414312 204 51 127
0.363721 0.515386 0.153218 76 0 153
-0.064833 -0.417506 -0.362173 0 255 0
0.426016 -0.044624 -0.218569 76 153 0
0.249790 0.775639 -0.110408 76 0 153
0.122562 -0.803259 -0.157699 153 76 0
-0.353014 -0.803259 -0.173342 153 76 0
0.260762 -0.735848 -0.009999 127 127 0
-0.296631 -0.735848 0.090808 127 127 0
0.209286 0.627345 0.414312 76 0 153
-0.428321 0.653226 0.295916 153 0 76
0.426016 -0.568397 0.286330 76 153 0
0.426016 -0.618736 0.070254 76 153 0
0.273519 -0.560399 -0.362173 0 255 0
-0.423181 0.221206 0.414312 127 127 0
0.022861 0.642307 -0.362173 153 0 76
-0.106474 0.097526 -0.362173 76 153 0
-0.366025 -0.501167 -0.323984 0 0 255
0.426016 0.754971 0.287073 76 153 0
0.316804 0.775639 0.317160 76 0 153
0.107467 0.775639 0.195525 76 0 153
-0.224703 -0.803259 0.336307 153 76 0
-0.174425 0.153721 -0.362173 76 153 0
-0.368510 0.537931 -0.362173 153 0 76
0.265886 -0.735848 -0.350790 0 255 0
-0.428321 -0.318316 -0.419891 153 0 76
0.363721 -0.675264 -0.291958 255 0 0
0.426016 -0.449842 -0.253818 76 153 0
0.426016 0.067397 -0.340474 76 153 0
-0.394948 -0.707327 -0.361855 153 0 76
0.346455 0.811236 -0.250273 76 0 153
-0.428321 -0.162344 -0.433242 153 0 76
0.168231 0.340482 0.139438 204 51 127
-0.163694 0.775639 -0.366352 76 0 153
-0.428321 -0.379254 0.321823 153 0 76
0.426016 0.196585 -0.009468 76 153 0
0.295035 0.137634 0.414312 127 127 0
-0.013080 -0.197683 -0.196185 153 0 76
-0.428321 0.441686 -0.392374 153 0 76
0.265967 -0.206582 -0.165218 153 0 76
-0.428321 -0.311233 0.045818 153 0 76
0.426016 0.630011 0.156900 76 153 0
0.426016 0.459850 0.275145 76 153 0
-0.291175 0.775639 -0.365493 76 0 153
0.426016 -0.143538 0.078609 76 153 0
0.363721 0.005000 0.323186 127 0 127
0.426016 -0.577700 0.159276 76 153 0
-0.082798 -0.803259 -0.075981 153 76 0
-0.242710 -0.206582 0.339453 153 0 76
0.195977 -0.803259 0.118812 153 76 0
-0.356594 -0.098158 -0.362173 76 153 0
-0.019274 0.527143 -0.406652 76 0 153
0.363721 0.027542 0.032673 127 0 127
0.381519 0.174647 0.260881 76 153 0
-0.366025 0.697760 -0.322546 153 76 0
-0.121014 -0.215482 -0.365895 76 153 0
0.426016 0.704685 -0.218875 76 153 0
0.237792 0.093668 0.367573 127 127 0
0.214739 0.294890 -0.397753 76 0 153
0.177286 -0.803259 0.292437 153 76 0
0.397887 -0.049373 -0.406652 76 0 153
-0.366025 -0.748617 0.052127 127 127 0
0.238709 -0.142324 0.367573 127 127 0
0.363721 0.169227 0.084610 127 0 127
0.423791 0.241455 0.401905 127 127 0
0.239369 -0.803259 0.215025 153 76 0
-0.154936 0.623615 -0.433350 153 0 76
0.399318 -0.320504 0.233571 76 153 0
0.057238 -0.177222 0.414312 127 127 0
0.363721 -0.529249 -0.021309 255 0 0
0.216354 -0.744747 0.166219 127 127 0
0.012793 -0.735848 0.241042 127 127 0
-0.255362 -0.803259 -0.033614 153 76 0
0.198291 -0.690621 -0.433350 204 51 127
0.158908 0.116924 -0.362173 76 153 0
-0.207371 0.120062 0.414312 127 127 0
0.104697 -0.735848 -0.201420 127 127 0
0.222351 -0.744747 -0.096642 127 127 0
-0.366025 0.450024 0.353266 153 76 0
-0.428321 -0.171634 -0.008231 153 0 76
0.399318 0.102517 -0.237894 127 0 127
-0.112831 -0.735848 -0.260972 127 127 0
-0.428321 0.167776 -0.040420 153 0 76
-0.259209 0.811236 0.332177 76 0 153
0.298155 -0.531307 0.367573 204 51 127
0.376984 -0.362076 0.337031 255 0 0
0.375665 0.775639 -0.014595 76 0 153
-0.374841 -0.637223 0.414312 204 51 127
-0.428321 -0.098019 0.168621 153 0 76
0.226609 0.340482 0.207987 204 51 127
0.363721 -0.027293 -0.111739 127 0 127
-0.366025 -0.488226 -0.060985 0 0 255
-0.361400 0.811236 0.371214 76 0 153
0.363721 0.541432 -0.173787 76 0 153
-0.264916 0.775639 -0.158672 76 0 153
0.337884 0.331583 -0.285551 204 51 127
0.399318 -0.291246 0.094645 76 153 0
-0.235562 -0.164126 -0.362173 76 153 0
0.398687 -0.495958 -0.406652 76 153 0
0.047717 -0.327006 0.456606 153 0 76
0.426016 -0.743392 -0.068001 76 153 0
-0.366025 0.626196 0.102128 153 76 0
0.330190 -0.197683 -0.298607 153 0 76
0.426016 0.700074 0.127114 76 153 0
-0.428321 0.086916 0.163351 153 0 76
-0.148200 -0.304546 0.387614 204 51 127
-0.166202 -0.803259 -0.257993 153 76 0
0.426016 -0.720335 -0.150570 76 153 0
0.426016 0.073880 -0.147095 76 153 0
0.363721 -0.028961 0.167666 127 0 127
-0.428321 0.484458 -0.033642 153 0 76
-0.170444 -0.803259 0.081973 153 76 0
-0.366025 -0.612535 0.123114 0 0 255
-0.105310 0.705449 -0.362173 153 0 76
0.399318 0.311071 -0.160688 76 153 0
-0.033363 -0.681463 -0.362173 0 255 0
0.149373 0.775639 -0.104988 76 0 153
-0.366025 -0.074154 0.312259 0 127 127
-0.366025 0.013495 -0.237183 0 127 127
-0.366025 0.053112 -0.041638 0 127 127
-0.177281 0.811236 0.297635 76 0 153
-0.121618 -0.735848 0.121717 127 127 0
-0.401623 0.317616 -0.355489 153 0 76
0.039139 0.750036 0.387614 76 0 153
-0.366025 0.580482 -0.264776 153 76 0
0.090697 0.779672 -0.433350 153 0 76
-0.366025 0.098267 -0.200018 0 127 127
-0.133854 0.725864 0.387614 76 0 153
0.095835 -0.803259 0.142665 153 76 0
-0.366025 0.409506 -0.278924 153 76 0
0.426016 -0.217637 -0.406796 76 153 0
-0.428321 0.686023 -0.196823 153 0 76
0.235191 0.340482 0.056988 204 51 127
-0.101562 -0.346048 -0.397753 76 0 153
0.153591 -0.064291 0.367573 127 127 0
-0.366025 0.414321 0.035562 153 76 0
0.351606 -0.803259 -0.138969 153 76 0
-0.383824 -0.746686 0.350534 153 0 76
-0.031182 -0.735848 0.178627 127 127 0
0.281805 0.740296 0.449384 153 0 76
0.363721 -0.054364 0.267534 127 0 127
-0.224157 -0.557814 -0.406652 76 0 153
-0.086242 -0.473334 0.414312 204 51 127
0.005401 0.340482 0.345023 204 51 127
-0.145223 0.222504 -0.397753 76 0 153
-0.300988 0.674183 -0.433350 153 0 76
0.306409 -0.015677 -0.406652 76 0 153
-0.417178 -0.803259 -0.399634 153 0 76
-0.022484 -0.218424 0.387614 127 127 0
-0.366025 -0.430885 -0.195787 0 0 255
-0.092735 0.331583 0.127338 204 51 127
-0.366025 -0.627356 -0.262767 0 0 255
0.426016 0.435810 -0.137827 76 153 0
-0.131964 -0.732974 0.414312 204 51 127
-0.161377 0.331583 -0.096714 204 51 127
-0.332660 -0.206582 0.103228 153 0 76
0.030204 -0.642974 -0.362173 0 255 0
0.076873 0.811236 0.001367 76 0 153
0.080288 0.331583 0.344972 204 51 127
-0.200325 -0.696540 -0.362173 0 255 0
0.146828 0.744489 0.387614 76 0 153
0.347613 -0.150807 -0.362173 127 0 127
0.265431 -0.735848 0.341086 127 127 0
-0.364603 0.355035 0.414312 76 0 153
-0.428321 0.587550 -0.368797 153 0 76
0.363721 0.361820 0.012029 76 0 153
0.274365 0.369594 0.367573 76 0 153
0.363721 0.619836 0.114519 76 0 153
-0.428321 0.664447 0.214541 153 0 76
0.181692 -0.744747 0.049153 127 127 0
-0.428321 0.535769 0.169002 153 0 76
-0.383824 -0.379186 0.383153 204 51 127
-0.266073 0.048829 -0.406652 76 0 153
-0.428321 -0.400174 0.027858 153 0 76
-0.171470 0.004855 -0.406652 76 0 153
-0.428321 -0.017073 0.344657 153 0 76
-0.366025 -0.069745 0.056065 0 127 127
-0.008965 0.811236 0.253797 76 0 153
0.050839 0.407322 -0.362173 153 0 76
0.113490 0.378691 0.414312 76 0 153
0.292723 0.594910 0.414312 76 0 153
-0.206668 -0.735848 -0.063697 127 127 0
-0.382701 -0.803259 0.245527 153 76 0
-0.145636 0.811236 -0.167127 76 0 153
0.028787 -0.506106 0.367573 204 51 127
-0.169118 0.567466 -0.362173 153 0 76
0.090104 -0.753647 -0.379250 153 76 0
0.108305 -0.735848 0.043485 127 127 0
0.399318 -0.210659 -0.260158 76 153 0
-0.054169 -0.119623 0.367573 127 127 0
0.061535 -0.438386 0.367573 204 51 127
-0.401623 0.186138 0.270367 153 0 76
-0.053238 0.752007 0.387614 76 0 153
-0.428321 0.676973 -0.368193 153 0 76
0.363721 -0.669518 0.047449 255 0 0
-0.408524 0.100492 -0.433350 153 0 76
0.255626 -0.231575 -0.406652 76 0 153
0.244083 -0.803259 -0.241634 153 76 0
-0.165109 0.331583 -0.311484 204 51 127
-0.133890 -0.197683 -0.199988 153 0 76
0.363721 -0.412051 0.141830 255 0 0
0.426016 0.567327 -0.294739 76 153 0
-0.428321 0.534988 -0.176898 153 0 76
0.319641 -0.744747 0.120445 127 127 0
-0.374708 -0.803259 -0.243212 153 76 0
0.363721 0.652965 0.040079 76 0 153
0.426016 -0.106464 -0.177739 76 153 0
-0.426096 0.720336 0.407569 76 0 153
-0.361912 0.775639 -0.254400 76 0 153
0.163695 0.340482 -0.359609 204 51 127
0.046234 -0.803259 -0.139568 153 76 0
0.093710 0.681935 -0.433350 153 0 76
-0.288750 -0.803259 -0.215656 153 76 0
0.426016 0.034729 0.269267 76 153 0
0.317152 -0.803259 -0.300529 153 76 0
0.325184 0.528100 -0.362173 153 0 76
0.194814 -0.004020 -0.362173 76 153 0
0.426016 0.809519 0.213147 76 153 0
-0.428321 -0.102684 -0.113590 153 0 76
0.206070 -0.325842 -0.406652 76 0 153
0.426016 0.407795 0.123986 76 153 0
-0.212154 0.713624 -0.379972 76 0 153
-0.313417 0.331583 -0.021237 204 51 127
-0.366025 -0.589735 0.356137 0 0 255
0.426016 -0.567493 -0.004810 76 153 0
0.271077 -0.803259 -0.157522 153 76 0
0.101096 0.493956 0.367573 76 0 153
-0.366025 -0.366467 0.133165 0 0 255
-0.428321 -0.464218 0.311247 153 0 76
0.363721 0.613035 0.350941 76 0 153
-0.366025 0.419600 0.229480 153 76 0
0.426016 0.143302 0.045004 76 153 0
-0.103755 -0.803259 -0.006550 153 76 0
-0.141002 0.811236 -0.044764 76 0 153
0.097681 0.676715 0.414312 76 0 153
-0.428321 0.399555 -0.018140 153 0 76
0.112694 0.060647 0.367573 127 127 0
0.226003 0.687406 0.367573 76 0 153
-0.411619 0.811236 -0.348764 153 0 76
-0.122654 -0.735848 0.217455 127 127 0
-0.344627 0.775639 -0.033356 76 0 153
0.068656 -0.735848 0.306242 127 127 0
-0.265156 -0.206582 -0.231472 153 0 76
0.137950 -0.452241 0.414312 204 51 127
0.381519 0.535465 -0.089711 76 0 153
0.363721 -0.660987 -0.205408 255 0 0
0.330374 0.331583 0.143659 204 51 127
0.052015 -0.352317 -0.397753 0 255 0
-0.115772 -0.124283 -0.362173 76 153 0
0.426016 -0.404199 0.177432 76 153 0
0.426016 0.552899 0.033431 76 153 0
-0.038830 -0.729362 -0.433350 204 51 127
-0.366025 0.613389 0.263788 153 76 0
0.322024 -0.803259 -0.004887 153 76 0
0.426016 -0.141608 0.318270 76 153 0
0.071830 -0.074622 0.367573 127 127 0
0.339900 0.070985 -0.406652 76 0 153
-0.172167 0.429853 -0.406652 76 0 153
0.135589 0.811236 -0.233248 76 0 153
0.248446 -0.197683 0.079714 153 0 76
0.373978 -0.747666 -0.397753 204 51 127
-0.042599 0.203475 -0.406652 76 0 153
0.363721 0.521868 0.315638 76 0 153
0.350398 0.476653 0.387614 76 0 153
0.363721 0.638058 -0.271053 76 0 153
0.363721 0.083211 -0.017184 127 0 127
0.365830 -0.241730 0.414312 127 127 0
-0.428254 -0.468064 -0.433350 153 0 76
0.426016 0.143204 -0.333881 76 153 0
0.067583 -0.206582 -0.124108 153 0 76
0.363721 -0.011887 -0.233467 127 0 127
-0.428321 -0.579017 -0.031100 153 0 76
0.399318 -0.555195 -0.364532 76 153 0
-0.366025 -0.468121 -0.260314 0 0 255
0.368338 0.783097 0.385389 76 0 153
-0.375736 -0.215482 -0.067905 0 127 127
0.426016 0.457954 0.071221 76 153 0
-0.266351 -0.744747 0.243058 127 127 0
0.399318 0.315560 -0.067513 76 0 153
0.426016 0.033352 0.082265 76 153 0
0.426016 0.117805 0.361251 76 153 0
-0.428321 -0.129330 0.092455 153 0 76
-0.300079 0.623102 -0.362173 153 0 76
-0.035799 0.147273 0.414312 127 127 0
0.426016 -0.737581 0.199600 76 153 0
-0.005405 -0.322059 0.387614 204 51 127
-0.334655 -0.744747 -0.355148 127 127 0
0.262404 -0.413569 -0.406652 76 0 153
-0.366025 0.662675 -0.105393 153 76 0
0.271108 -0.197683 0.207650 153 0 76
-0.366025 -0.509708 -0.138926 0 0 255
0.258993 -0.744747 -0.196134 127 127 0
0.363721 -0.453228 -0.297507 255 0 0
0.143410 -0.735848 0.192949 127 127 0
-0.366025 -0.636282 -0.086603 0 0 255
0.082882 -0.650533 0.414312 204 51 127
-0.161543 -0.634012 0.414312 204 51 127
0.426016 0.761595 -0.261188 76 153 0
0.426016 -0.458590 -0.071240 76 153 0
-0.004987 0.331583 0.030898 204 51 127
-0.274721 0.410789 -0.406652 76 0 153
0.363721 0.611730 -0.182063 76 0 153
-0.346599 -0.803259 -0.017385 153 76 0
-0.292899 -0.113152 0.414312 127 127 0
-0.428321 -0.684678 0.218133 153 0 76
0.243489 -0.122043 -0.362173 76 153 0
0.298396 0.775639 0.087433 76 0 153
-0.072810 0.515379 -0.362173 153 0 76
0.130757 -0.539841 -0.406652 76 0 153
-0.171361 -0.803259 0.153816 153 76 0
-0.428321 0.496858 -0.340050 153 0 76
-0.152688 0.416513 0.414312 76 0 153
-0.428321 -0.511030 -0.276113 153 0 76
0.426016 0.494865 0.338155 76 153 0
-0.297991 -0.735848 -0.088330 127 127 0
0.304772 -0.197683 -0.026540 153 0 76
-0.239454 -0.445582 0.367573 204 51 127
-0.010264 0.675290 -0.433350 153 0 76
-0.261639 -0.206582 0.129952 153 0 76
-0.359798 -0.707355 -0.433350 204 51 127
-0.366025 -0.142832 -0.225780 0 127 127
-0.428321 -0.642703 -0.206615 153 0 76
0.426016 -0.492374 0.141804 76 153 0
-0.274189 0.743093 0.464504 153 0 76
0.423791 -0.478597 0.412917 204 51 127
0.363721 0.494019 -0.300616 76 0 153
-0.181524 -0.744747 0.349389 127 127 0
-0.428321 0.453182 -0.176232 153 0 76
-0.338245 -0.803259 0.306525 153 76 0
-0.326186 -0.537996 0.414312 204 51 127
0.076375 -0.734116 0.414312 204 51 127
-0.062604 0.012862 0.414312 127 127 0
0.380985 -0.215482 -0.100433 76 153 0
-0.352418 0.176089 0.379097 127 127 0
0.274649 -0.254576 0.414312 127 127 0
0.313601 -0.462675 -0.406652 76 0 153
0.363721 -0.535833 0.318363 255 0 0
-0.428321 0.514890 0.101353 153 0 76
-0.002726 -0.197683 0.054991 153 0 76
0.399318 -0.711179 0.004155 127 0 127
0.363721 -0.135133 -0.195658 127 0 127
-0.335265 0.331583 0.122690 204 51 127
0.426016 0.712301 0.347354 76 153 0
-0.366025 -0.563314 0.289794 0 0 255
-0.428321 0.700634 0.058934 153 0 76
0.426016 0.709262 -0.044085 76 153 0
-0.366025 -0.373184 0.239852 0 0 255
0.091365 0.775639 0.314451 76 0 153
-0.428321 -0.530792 0.110012 153 0 76
-0.149966 0.254188 0.387614 127 127 0
-0.268944 0.811236 0.164119 76 0 153
0.426016 0.005920 -0.023526 76 153 0
0.363721 -0.163393 0.102602 127 0 127
-0.340769 -0.027701 0.385372 127 127 0
-0.036304 0.775639 -0.370544 76 0 153
-0.401623 -0.313296 -0.048161 153 0 76
0.151211 0.481959 0.414312 76 0 153
-0.360710 -0.469296 0.414312 204 51 127
0.363721 -0.369939 -0.007507 255 0 0
-0.383824 -0.178439 0.323269 153 76 0
0.426016 -0.106611 0.014176 76 153 0
-0.426096 -0.247314 0.390966 153 0 76
-0.269941 -0.677584 0.414312 204 51 127
0.285774 -0.616847 0.367573 204 51 127
-0.428321 -0.748487 -0.036905 153 0 76
0.426016 -0.559053 -0.130823 76 153 0
-0.242126 -0.580114 0.414312 204 51 127
-0.276335 -0.434313 -0.362173 0 255 0
0.255589 0.518442 -0.362173 153 0 76
-0.341137 -0.537032 -0.397753 76 0 153
-0.062564 0.811236 -0.030441 76 0 153
-0.428321 0.395253 0.128942 153 0 76
-0.366025 0.435970 -0.212465 153 76 0
0.082815 -0.665968 -0.433350 204 51 127
-0.111550 0.775639 -0.320995 76 0 153
0.084791 0.216677 -0.406652 76 0 153
0.363721 0.545857 0.081080 76 0 153
-0.428321 -0.396923 0.150490 153 0 76
0.353127 -0.206582 0.232063 127 0 127
-0.428321 -0.646394 -0.137695 153 0 76
0.281046 0.248085 0.387614 127 127 0
-0.034222 -0.197683 0.189446 153 0 76
-0.084834 0.811236 0.076484 76 0 153
0.379313 -0.154925 0.414312 127 127 0
0.399318 -0.034789 0.377334 127 127 0
-0.103922 -0.584838 -0.362173 0 255 0
0.172494 -0.348942 0.387614 204 51 127
-0.262650 0.693521 0.367573 76 0 153
0.201935 0.811236 -0.076535 76 0 153
-0.074272 -0.206582 -0.166507 153 0 76
-0.249364 -0.005315 0.414312 127 127 0
0.368373 0.714254 -0.093236 76 153 0
0.326226 -0.563188 -0.406652 76 0 153
0.321444 -0.731902 0.414312 204 51 127
-0.065259 -0.744747 0.028693 127 127 0
-0.349597 0.331501 -0.397753 76 0 153
-0.267011 0.509008 -0.362173 153 0 76
-0.066496 0.432444 -0.406652 76 0 153
-0.428321 -0.130088 0.234160 153 0 76
-0.284796 0.775639 0.012336 76 0 153
0.225722 0.806786 0.410845 76 0 153
0.325072 -0.459283 0.367573 204 51 127
-0.366025 0.638762 0.336766 153 76 0
-0.371020 -0.362076 -0.156408 0 0 255
0.359984 -0.735848 -0.258584 127 127 0
-0.366025 -0.037038 -0.060022 0 127 127
-0.250290 -0.323650 0.387614 204 51 127
0.316214 0.447491 -0.362173 153 0 76
-0.143679 -0.495275 0.367573 204 51 127
0.333205 0.213839 -0.397753 76 0 153
-0.428321 -0.428439 -0.087298 153 0 76
-0.428321 0.054393 -0.178885 153 0 76
-0.343046 0.775639 -0.140652 76 0 153
-0.428321 0.433300 0.325788 153 0 76
-0.428321 -0.052666 -0.258014 153 0 76
-0.127243 0.334885 0.387614 76 0 153
-0.366025 -0.150661 0.166579 0 127 127
0.369012 -0.689432 -0.362173 0 255 0
-0.428321 -0.030123 -0.134498 153 0 76
-0.428321 -0.534244 -0.360528 153 0 76
0.363721 -0.109784 0.204486 127 0 127
0.426016 0.495497 -0.426195 76 153 0
0.301945 0.811236 0.204590 76 0 153
0.359575 0.731181 -0.433350 153 0 76
-0.366025 -0.444130 0.122183 0 0 255
0.106432 -0.546855 0.367573 204 51 127
0.363721 -0.623185 0.199379 255 0 0
-0.338730 -0.767661 0.179858 153 76 0
0.363721 0.071032 0.282488 127 0 127
-0.009340 -0.735848 -0.321853 127 127 0
0.399318 -0.256020 0.173389 76 153 0
0.426016 -0.612473 -0.089159 76 153 0
0.363721 -0.101483 -0.022524 127 0 127
-0.428321 0.034772 0.291927 153 0 76
-0.145605 -0.803259 -0.150780 153 76 0
0.363721 0.439911 -0.007222 76 0 153
-0.383824 0.027024 -0.369485 153 0 76
0.423791 0.174625 0.413251 127 127 0
-0.098251 0.053987 0.367573 127 127 0
-0.370509 0.176089 0.136109 153 0 76
-0.276423 -0.803259 0.174549 153 76 0
0.076664 -0.344050 0.387614 204 51 127
-0.401623 0.244047 -0.045666 153 0 76
0.198731 -0.696381 0.367573 204 51 127
0.006853 -0.230220 -0.406652 76 0 153
0.157322 0.775639 0.107201 76 0 153
-0.345449 0.100547 0.385372 127 127 0
-0.286210 0.196826 0.387614 127 127 0
-0.275617 -0.748154 0.385372 153 76 0
-0.366025 0.382370 -0.084421 153 76 0
0.296728 -0.012564 0.414312 127 127 0
0.125387 -0.735848 -0.265584 127 127 0
-0.191532 -0.744747 0.001328 127 127 0
0.185163 0.151556 0.414312 127 127 0
0.363721 -0.431242 -0.193275 255 0 0
-0.401623 0.535948 0.282512 153 0 76
-0.013356 0.011063 -0.362173 76 153 0
-0.179357 -0.476528 -0.362173 0 255 0
0.426016 -0.333358 -0.043007 76 153 0
-0.428321 -0.024224 0.023679 153 0 76
-0.428321 -0.636405 0.017287 153 0 76
-0.428321 0.735130 -0.242621 153 0 76
-0.207435 -0.269916 -0.397753 76 0 153
-0.077993 0.340482 -0.012865 204 51 127
-0.366025 0.483161 0.026053 153 76 0
-0.217400 0.340482 -0.060875 204 51 127
0.366461 0.714254 0.232061 76 0 153
-0.401623 0.255604 0.203846 153 0 76
-0.086375 0.641094 -0.362173 153 0 76
0.163437 -0.744747 -0.141789 127 127 0
-0.428321 -0.357393 -0.250372 153 0 76
-0.304282 -0.147425 -0.362173 76 153 0
-0.428321 -0.543636 0.213143 153 0 76
-0.401623 0.736191 0.184369 153 0 76
-0.200246 0.331583 -0.187524 204 51 127
-0.323227 -0.241624 -0.397753 76 0 153
-0.428321 -0.034851 -0.375533 153 0 76
0.095760 0.149538 0.414312 127 127 0
-0.056165 0.811236 0.347393 76 0 153
0.182751 -0.026586 0.414312 127 127 0
0.164955 -0.133622 0.367573 127 127 0
0.206296 -0.744747 0.311520 127 127 0
0.191724 -0.206582 -0.035392 153 0 76
-0.427784 0.728002 -0.433350 153 0 76
-0.198825 0.520261 0.367573 76 0 153
-0.237834 -0.803259 0.047894 153 76 0
-0.139725 0.789712 -0.433350 76 0 153
-0.257321 -0.391620 0.414312 204 51 127
0.191864 -0.803259 -0.045305 153 76 0
-0.366025 0.639826 0.036982 153 76 0
0.426016 0.357987 -0.280549 76 153 0
0.069460 0.298453 -0.406652 76 0 153
-0.060023 -0.206582 -0.320243 153 0 76
-0.350484 0.331583 0.306044 204 51 127
-0.028929 0.530942 0.414312 76 0 153
-0.428321 0.132971 -0.294707 153 0 76
0.230290 -0.517771 0.367573 204 51 127
0.373188 0.811236 0.087625 76 0 153
-0.366025 0.476579 0.182411 153 76 0
-0.428321 0.497042 -0.231313 153 0 76
-0.428321 -0.753516 0.260615 153 0 76
-0.421089 -0.111166 0.385389 153 0 76
0.363721 -0.552203 -0.304098 255 0 0
0.363721 0.488261 -0.225198 76 0 153
-0.366025 -0.060892 -0.194546 0 127 127
-0.289523 -0.646227 -0.433350 204 51 127
0.363721 -0.408308 -0.108075 255 0 0
0.399318 -0.140852 -0.307420 76 153 0
-0.383824 -0.678073 0.360975 153 0 76
-0.428321 0.602099 0.340972 153 0 76
-0.144540 -0.206582 -0.030538 153 0 76
0.023197 -0.115044 -0.362173 76 153 0
-0.308767 0.518061 0.414312 76 0 153
0.381519 -0.745965 0.063209 255 0 0
-0.383824 0.113945 -0.011140 153 0 76
0.426016 0.620451 -0.386367 76 153 0
0.292548 -0.744747 0.278483 153 76 0
-0.272642 0.064477 0.367573 127 127 0
0.231495 0.420373 -0.362173 153 0 76
-0.258682 -0.803259 -0.142006 153 76 0
0.363721 0.424360 0.167034 76 0 153
0.363721 0.064182 0.364996 127 127 0
0.426016 0.095794 0.174804 76 153 0
0.273014 -0.656147 -0.397753 76 0 153
-0.366025 0.077768 0.291746 0 127 127
0.035392 0.775639 -0.385349 153 0 76
-0.428321 -0.600121 0.289753 153 0 76
0.363721 0.085455 -0.128780 127 0 127
-0.428321 0.291627 -0.432048 153 0 76
0.426016 0.175784 -0.118209 76 153 0
0.045073 -0.803259 -0.284338 153 76 0
0.363721 0.035528 -0.292045 127 0 127
-0.047783 -0.803259 0.274431 153 76 0
0.363721 0.170279 -0.054462 127 0 127
-0.428321 -0.794962 0.143437 153 0 76
0.426016 0.280274 0.108692 76 153 0
-0.171196 0.775639 0.007786 76 0 153
-0.236162 0.775639 -0.046740 76 0 153
0.335262 0.331583 -0.039026 204 51 127
0.199598 0.811236 0.021370 76 0 153
0.218176 0.411882 0.367573 76 0 153
-0.371002 -0.215482 0.155928 0 127 127
-0.428321 -0.276989 -0.368748 153 0 76
0.199423 -0.621870 -0.406652 76 0 153
-0.428321 -0.501501 0.372919 204 51 127
-0.428321 -0.201454 0.222488 153 0 76
-0.428321 -0.745988 -0.253372 153 0 76
0.426016 -0.649830 0.132851 76 153 0
-0.348649 0.811236 -0.377257 76 0 153
0.314069 0.811236 -0.146107 76 0 153
-0.012529 -0.511269 -0.362173 0 255 0
0.208966 0.717296 -0.433350 153 0 76
0.426016 0.631352 0.007198 76 153 0
-0.091290 0.331583 -0.356087 204 51 127
0.049939 0.775639 0.164152 76 0 153
0.426016 0.459496 -0.257538 76 153 0
0.291096 0.811236 -0.372403 76 0 153
-0.383824 0.587702 0.193634 153 76 0
-0.366025 -0.661628 0.221486 0 0 255
0.208353 0.331583 0.358976 204 51 127
-0.077919 -0.803259 0.411714 204 51 127
-0.366025 -0.644415 -0.327103 0 0 255
0.363721 0.126395 0.135194 127 0 127
0.353891 -0.803259 0.341854 153 76 0
-0.428321 0.142832 0.352494 153 0 76
0.260530 0.741498 0.387614 76 0 153
0.426016 -0.356782 -0.432506 76 153 0
-0.097581 0.331583 0.211660 204 51 127
0.363721 -0.057796 -0.328082 127 0 127
0.363721 -0.622414 -0.139792 255 0 0
0.150533 0.685429 -0.362173 153 0 76
0.233313 0.775639 -0.306370 76 0 153
-0.130608 -0.586520 0.367573 204 51 127
0.118157 -0.803259 -0.414745 153 76 0
0.399318 -0.800966 -0.083012 76 153 0
-0.151124 -0.651843 -0.433350 204 51 127
0.352326 0.157499 -0.362173 76 153 0
0.076652 -0.803259 0.004781 153 76 0
-0.138161 0.159616 0.414312 127 127 0
0.018756 0.079782 -0.362173 76 153 0
0.101688 0.340482 -0.247437 204 51 127
0.132396 -0.206582 -0.243747 153 0 76
-0.165004 -0.803259 0.309175 153 76 0
-0.366025 0.020707 0.062685 0 127 127
-0.401623 0.763179 -0.069422 153 0 76
-0.289154 -0.197683 -0.164711 153 0 76
-0.156212 -0.362899 -0.362173 0 255 0
-0.428321 -0.656444 0.083373 153 0 76
0.399318 0.349454 0.339257 76 0 153
0.426016 0.743766 -0.153455 76 153 0
-0.366025 0.691020 0.106285 153 76 0
0.363721 0.711066 -0.334147 76 0 153
-0.013700 0.331583 0.250722 204 51 127
0.079644 0.800281 0.414312 76 0 153
0.363721 -0.376248 -0.323708 255 0 0
0.363721 -0.425174 0.069235 255 0 0
0.175780 -0.245772 0.387614 127 127 0
-0.071454 -0.517475 0.367573 204 51 127
-0.195862 -0.168839 0.414312 127 127 0
-0.159882 -0.411857 0.414312 204 51 127
0.115783 -0.223255 -0.406652 76 0 153
0.111364 -0.155594 -0.397753 76 0 153
-0.142228 -0.744747 -0.040572 127 127 0
0.138939 -0.298411 -0.406652 76 0 153
0.160365 -0.767661 0.354137 153 76 0
0.426016 -0.617961 0.333542 76 153 0
0.363721 0.102325 0.048449 127 0 127
-0.366025 0.082583 0.182240 0 127 127
-0.051234 0.334960 -0.406652 76 0 153
-0.428321 0.662000 0.002954 153 0 76
0.426016 -0.525780 0.197607 76 153 0
-0.264646 -0.206582 0.248030 153 0 76
0.356621 -0.082268 0.414312 127 127 0
-0.259829 -0.242264 0.414312 127 127 0
-0.401623 0.245271 -0.349835 153 0 76
-0.379436 0.775639 0.123049 76 0 153
-0.027015 -0.059970 0.414312 127 127 0
-0.428321 0.384674 -0.179153 153 0 76
0.426016 -0.762745 -0.201915 76 153 0
0.263733 0.811236 0.324866 76 0 153
0.047527 0.775639 -0.198510 76 0 153
-0.153913 0.811236 0.180281 76 0 153
-0.191122 -0.215482 -0.367581 76 153 0
0.355096 0.775639 0.191239 76 0 153
0.426016 0.213507 0.140974 76 153 0
-0.366025 -0.490426 0.298952 0 0 255
-0.034915 0.811236 0.027586 76 0 153
0.368284 0.775639 -0.201409 76 0 153
-0.258736 0.605175 0.414312 76 0 153
-0.306778 0.120046 -0.406652 76 0 153
-0.366025 0.130030 -0.335276 0 127 127
0.361140 -0.735848 -0.118154 255 0 0
-0.390759 0.350305 0.206838 153 0 76
0.375501 -0.753678 0.387614 153 76 0
-0.401623 -0.353232 0.189710 153 0 76
-0.366025 -0.601773 0.056439 0 0 255
0.426016 0.207491 0.216563 76 153 0
0.359061 -0.287626 -0.406652 76 0 153
-0.366025 -0.570110 -0.168975 0 0 255
0.363721 0.398602 -0.119940 76 0 153
-0.428321 -0.505714 -0.168913 153 0 76
0.243749 0.013070 -0.406652 76 0 153
-0.160604 0.609264 0.367573 76 0 153
-0.428321 -0.260248 -0.074404 153 0 76
0.209155 -0.740833 -0.379972 153 76 0
0.179857 0.775639 -0.365500 76 0 153
-0.320587 -0.589723 -0.362173 0 255 0
-0.011190 -0.705980 0.387614 204 51 127
